# .PCD v0.7 - Point Cloud Data file format
VERSION 0.7
FIELDS x y z
SIZE 4 4 4
TYPE F F F
COUNT 1 1 1
WIDTH 2395
HEIGHT 1
VIEWPOINT 0 0 0 1 0 0 0
POINTS 2395
DATA ascii
58.392319 3.6123419 5.4581447
18.982483 26.012396 3.0043113
18.892479 26.060623 3.003011
41.537472 8.8442402 4.966372
18.965496 -16.0896 -1.1598343
18.962486 -15.984872 -1.1565734
18.976429 -15.906189 -1.1547102
18.982712 -15.827028 -1.1525673
19.055054 -15.702188 -1.1514492
40.417755 -33.305981 9.8674965
19.132469 -15.670901 -1.1533126
19.188177 -15.621632 -1.1538715
20.688301 -20.076382 -0.66930652
19.246481 -15.568811 -1.1544306
19.262676 -15.504201 -1.1531262
20.659159 -19.922462 -0.66633558
19.292566 -15.428637 -1.1520083
19.325745 -15.36138 -1.1512629
19.351791 -15.299581 -1.1504244
19.393476 -15.233775 -1.1500517
19.480894 -15.121825 -1.1500517
39.239544 -14.850873 7.9048839
20.810101 -19.38537 -0.66030073
20.893488 -19.354355 -0.66122919
20.983181 -19.322077 -0.66225046
21.077291 -19.293484 -0.66341096
21.166977 -19.260468 -0.66443229
21.259621 -19.229769 -0.66554642
44.491844 -7.5092583 7.4131231
44.590099 -6.8630724 7.4121504
22.608183 -6.3633895 -1.6423464
22.770098 -9.8393497 -1.1567597
22.819391 -9.7804041 -1.1577846
23.437695 -25.830048 0.80977827
37.900249 9.8016644 6.4316454
46.675289 -36.440502 2.7614658
-0.024251454 -0.52997714 -0.1792655
63.720787 -28.637257 3.257859
31.309855 47.701 3.9899306
63.785915 -28.452692 3.2571137
21.010227 22.078342 -2.1311998
39.719654 13.544908 7.9067354
34.023354 40.894146 4.9630308
26.716993 -7.6105347 1.2954853
19.226856 23.650211 -2.1313393
19.174158 23.728876 -2.1332924
19.123241 23.81856 -2.1359432
19.078255 23.890368 -2.1378963
31.629911 42.839138 4.9680467
22.201336 -19.621368 2.7642784
35.377224 28.9147 -2.1307261
35.369522 29.094246 -2.1357572
35.340961 29.226206 -2.1386454
63.038956 -0.8582381 10.357881
45.265598 -41.188526 5.7096963
22.198765 -23.092117 3.7458601
19.73395 39.911079 -3.1133711
19.652349 40.044682 -3.1192305
18.243662 40.707962 -3.11937
27.434551 -11.106565 2.761306
30.78017 49.682053 5.4525714
30.648628 49.779678 5.4538717
21.443115 -15.774594 3.7412517
23.174265 39.404987 -2.1318443
22.781389 39.810753 -2.1390181
34.808029 39.677021 7.4179268
34.812092 35.326256 -1.1514876
34.764286 35.462959 -1.1529732
34.07571 40.237644 7.4104114
34.747585 35.66938 -1.1561297
34.711136 35.844151 -1.1584508
44.977345 -35.330166 6.6884222
45.164391 -35.058353 6.6860991
45.387402 -34.801811 6.6884222
65.386879 -29.386028 6.6880341
66.727394 -10.270329 4.7209787
66.818939 -10.093487 4.7254434
40.863998 -36.115284 7.6645417
70.53862 59.042198 6.432384
42.834629 -12.331192 5.2126112
42.951031 -12.089168 5.2179546
43.023621 -11.85068 5.2186508
43.066132 -11.733101 5.2198129
44.811413 -60.736324 10.607775
43.161118 -11.355319 5.2191157
43.18504 -11.216672 5.2177219
42.417179 -12.08285 6.1984921
20.127737 -18.002596 -1.8883078
20.231222 -17.880198 -1.8880287
20.221022 -17.777113 -1.8827273
20.573654 -17.343042 -1.8816111
42.898613 -30.418896 8.6400518
20.679445 -17.241695 -1.8827273
20.752018 -17.198086 -1.8846804
20.826138 -17.161638 -1.8870522
43.026237 -30.306707 8.6465368
15.964084 69.147995 -1.6476415
60.966522 4.8410163 5.7057948
39.654053 -8.3708773 -1.8899829
39.670372 -8.2442265 -1.8895171
39.606586 -8.1084547 -1.8853246
39.621803 -8.0035505 -1.8850452
39.598347 -7.8766012 -1.8828092
39.599976 -7.7548532 -1.8817843
40.870899 -20.851725 8.6447515
60.098576 -24.734037 9.1336536
42.685387 -23.031782 9.1383677
42.143879 -18.211092 8.6499357
18.070135 -8.5648756 -1.3983383
18.063292 -8.499939 -1.3959665
18.052614 -8.4334202 -1.3933158
18.055834 -8.36975 -1.3916416
38.913944 11.519474 5.7035923
18.782711 -6.5481834 -1.390944
18.888807 -6.5223808 -1.3973618
57.01429 3.8568566 6.6826148
61.37249 0.39632639 7.1771846
56.226757 52.597645 1.7875562
55.945663 52.628433 1.7832855
29.396839 -32.216225 2.0338328
54.554531 54.080509 1.7834712
43.336346 5.2135897 7.1712394
54.41967 54.552811 1.7889954
53.760975 54.841434 1.7830069
23.398758 10.154662 -2.3797059
23.337553 10.215341 -2.3767333
23.276201 10.275735 -2.3737607
23.234665 10.330162 -2.3722746
39.114838 -2.3512542 -0.90977043
39.105671 -2.2342756 -0.90939897
39.003849 -1.8871359 -0.90661371
35.362961 47.581547 2.7646334
39.0546 -1.78712 -0.90768147
38.970886 -1.5447948 -0.90549958
38.937084 -1.434563 -0.90461761
41.308479 -19.297581 1.0585515
38.909428 -1.3111542 -0.90387481
22.3459 12.112653 -2.3713455
41.242199 -19.117748 1.0553949
22.315107 12.18176 -2.3719027
38.914932 -1.2025554 -0.90392125
22.305437 12.25745 -2.3745039
41.284527 -18.997492 1.0551164
38.871979 -1.0993724 -0.90285361
22.289875 12.335155 -2.3767333
22.283606 12.407996 -2.3795199
38.855083 -0.98352617 -0.90238935
41.283978 -18.840303 1.0535845
38.829845 -0.86761129 -0.90173948
41.237694 -18.671545 1.0509849
38.849972 -0.76630706 -0.90215719
35.872753 39.701157 3.7415979
38.942154 -0.6457445 -0.90424615
35.775829 39.844841 3.7445276
38.82394 -0.52856499 -0.90146089
38.835262 -0.42025438 -0.90169305
38.828339 -0.30496329 -0.90150732
38.835075 -0.18978548 -0.90164655
38.80946 -0.081282452 -0.90104318
38.815525 0.033882622 -0.90118235
21.570492 13.452581 -2.3717172
38.807255 0.14901263 -0.90099669
38.814732 0.2506547 -0.90118235
34.746433 40.76923 3.7457831
38.787827 0.36558563 -0.90057892
38.800568 0.48085469 -0.90090388
38.802963 0.59601188 -0.90099669
38.843132 0.7051419 -0.90197152
38.76062 0.83222193 -0.90011472
38.812443 0.92821437 -0.90136814
37.927452 14.673024 6.6813111
37.911324 14.796266 6.6861744
21.551895 -11.391883 0.56597203
61.469376 -1.0192943 8.6401453
0.52025086 -0.59365022 -0.41970763
0.51877874 -0.53646106 -0.41930223
0.52099442 -0.52942789 -0.41734287
0.53410143 -0.52120769 -0.41930223
0.52721125 -0.51244801 -0.41309759
-0.4985393 -0.50133151 -0.41929621
0.53178847 -0.50854331 -0.41342416
0.49327663 -0.48711652 -0.41113472
0.50121218 -0.48638734 -0.41419527
0.51316851 -0.48465905 -0.41861606
0.50858068 -0.47111571 -0.41113472
0.52185404 -0.4667553 -0.41521543
0.53258169 -0.45182189 -0.41419527
0.54038996 -0.45055559 -0.41725582
0.53765231 -0.43491626 -0.41011453
39.643372 9.1523924 7.6656671
18.92499 24.135935 -2.8614433
18.898577 24.250105 -2.8683176
77.182396 -37.161968 3.9948087
36.769787 16.602217 -1.8814116
36.754929 16.726942 -1.8831818
36.71553 16.980507 -1.8864427
36.704178 17.099855 -1.888306
36.688843 17.217558 -1.8899829
40.03476 17.524061 7.1799941
37.719582 8.9443445 -0.90002185
37.708065 9.0529032 -0.90034676
37.7351 9.1709299 -0.90160018
37.711926 9.2908602 -0.90173948
37.699417 9.3995152 -0.90206438
37.68465 9.5077009 -0.90234298
37.669579 9.61586 -0.90262145
37.635315 9.7331476 -0.90252864
37.586708 9.8326511 -0.90201801
37.561428 9.9522142 -0.90215719
37.556492 10.056217 -0.90266794
45.522236 5.8800011 8.6480846
37.526489 10.167598 -0.90266794
37.519295 10.285251 -0.90322495
37.548233 10.405997 -0.90461761
37.521042 10.518432 -0.90471041
37.541603 10.64445 -0.90596384
37.521347 10.751992 -0.90619594
37.495037 10.864935 -0.90633518
37.483742 10.975229 -0.90679938
37.506611 11.102868 -0.90814567
37.394772 15.981099 7.6619649
37.491737 11.340856 -0.90939897
37.418049 11.561369 -0.9092598
46.322201 -58.089172 6.9315968
55.394272 5.0315299 9.1384106
47.022251 -57.593388 6.9366131
29.928284 -30.593782 3.9928672
29.054739 -23.79797 3.5038841
78.493149 -8.610261 11.097664
64.539543 -1.9944111 10.60852
47.123245 -34.86937 5.4691062
90.678688 19.307487 8.6495409
34.430889 37.469585 -2.3730531
43.696503 -1.1060755 2.0383978
56.155632 3.9662011 10.606624
56.111732 4.1107521 10.600328
43.6945 0.038141549 2.0376525
40.645321 -37.205437 6.443809
40.768753 -37.096706 6.4458995
73.272278 -27.220604 5.4658384
42.881691 -27.497856 5.9571371
42.970039 -27.385477 5.9587636
43.792492 -25.991741 5.9552789
21.140079 -15.83207 4.9761481
33.656803 42.924114 7.6659331
33.517109 43.008179 7.6631503
37.446274 -79.325668 12.328232
45.123409 -58.298698 10.360882
45.303059 -58.194344 10.364779
46.32415 -57.43066 10.369788
46.549313 -61.638615 10.855502
41.686012 10.905026 3.013061
21.49505 -27.611609 -1.6318176
21.597939 -27.584511 -1.6337742
21.693146 -27.527504 -1.6344264
21.918594 -27.486454 -1.6394572
21.995268 -27.425138 -1.6394572
84.085022 -13.438136 5.9544125
20.702957 -22.162397 -2.1207364
44.721596 -20.892044 6.9372225
45.167271 -19.836447 6.9330478
45.254784 -19.705521 6.9369445
39.300972 -22.262592 7.4209051
41.724518 9.632863 3.9950969
41.695515 9.7489014 3.9949107
41.614307 9.8678904 3.9900806
44.942417 -35.302727 9.3893728
41.780273 -17.194998 7.4228506
43.49173 -20.781773 7.9192638
19.523649 -11.661534 -2.1216519
27.182371 -6.8176537 -2.6145368
19.76265 -11.267845 -2.1223953
19.856415 -11.247948 -2.1290834
27.25971 -6.7460961 -2.6199243
38.412613 2.484041 -3.5912027
41.635464 8.599576 4.9717145
41.444199 9.6901417 4.9772902
40.176479 -33.676231 9.8771238
40.365448 -33.452576 9.8774948
18.961906 -15.714544 -1.1484679
20.496254 -19.662067 -0.65941876
19.425991 -15.166331 -1.1493064
20.488455 -19.531359 -0.6571905
41.041325 -28.206923 9.3827686
19.500906 -15.050277 -1.1487474
20.531801 -19.456726 -0.65672624
20.623409 -19.441313 -0.6580261
19.532236 -14.976782 -1.1478157
20.725243 -19.414701 -0.6593259
19.565023 -14.920751 -1.1474431
19.61021 -14.858003 -1.14735
19.639843 -14.788939 -1.1465114
39.442112 -14.527505 7.9193263
19.673695 -14.733877 -1.1462319
19.705462 -14.661266 -1.1453934
19.735746 -14.603685 -1.1449276
19.760357 -14.536676 -1.1439959
19.786572 -14.460378 -1.1428778
19.823645 -14.40272 -1.1426915
19.844351 -14.333269 -1.1415735
19.886038 -14.268527 -1.1413872
19.920071 -14.214096 -1.1412009
19.952381 -14.147996 -1.1406419
22.432659 -6.3901105 -1.6310459
40.635033 -10.554346 7.910068
22.579512 -9.8319111 -1.1484679
46.199093 -32.157063 1.3068607
43.452625 -18.480354 8.8965588
46.266346 -32.000511 1.3060715
46.291882 -31.815529 1.3041217
46.362957 -31.662251 1.3034719
46.413147 -31.506828 1.3024043
46.555645 -31.414 1.3039361
22.974058 -8.6125069 -1.1441822
22.99015 -8.5408258 -1.1437165
22.963293 -8.4579487 -1.1412009
38.666431 6.4844289 6.4413729
26.549807 -9.0021095 -0.65087718
26.712872 -8.9691181 -0.65421951
26.809227 -8.9078503 -0.6558907
26.870083 -8.8448277 -0.65677273
37.977741 9.9349461 6.4494786
41.565041 7.463757 6.9381099
43.966526 13.157137 6.4498386
28.672642 -25.645308 1.7939279
70.400948 -64.827759 6.6921573
47.554974 7.8215199 7.9179668
-0.023395984 -0.52737737 -0.16472474
-0.023417257 -0.47880101 -0.1619792
36.641335 14.544329 7.4275618
20.9359 22.115881 -2.1295257
20.845802 22.159752 -2.1274328
20.770216 22.203304 -2.1260378
20.694534 22.246618 -2.1246426
20.60965 22.295401 -2.1231079
20.536652 22.349113 -2.1224105
20.462051 22.393116 -2.1211548
20.395409 22.445747 -2.1207364
34.242439 40.895451 4.9762216
19.799667 22.962433 -2.1201782
19.737947 23.028648 -2.1208758
19.67873 23.089758 -2.1214337
19.612535 23.159084 -2.1221313
19.560839 23.221027 -2.1231079
26.233294 9.8865833 -0.65087718
19.503387 23.292728 -2.1243637
19.437765 23.363094 -2.1252007
89.524117 10.24748 8.4067211
19.385181 23.432644 -2.126596
19.326654 23.511938 -2.1282701
33.261631 41.651222 4.9728775
19.280527 23.572977 -2.1295257
31.540806 42.969032 4.9728775
56.882889 5.517293 9.3893728
35.400505 28.585037 -2.1218753
35.400829 28.759226 -2.1269996
22.493616 38.247627 -3.1027679
88.619537 16.456676 8.4091358
20.110949 39.521076 -3.1008148
20.010393 39.596676 -3.1023495
19.922325 39.714725 -3.1069534
19.822027 39.791634 -3.1086276
21.768322 -17.520952 3.2677839
21.799988 -17.43387 3.2642994
19.08497 41.284721 -2.1210368
19.227165 41.289223 -2.124018
15.485184 86.322441 2.036144
18.861986 41.446346 -2.1235523
18.787157 41.570229 -2.1273723
34.824173 34.73917 -1.1420176
34.819664 34.904854 -1.1446637
34.741386 39.824787 7.4273911
34.812603 35.117722 -1.1480525
34.382221 40.11441 7.4251637
28.744003 -17.635054 4.7394009
65.714195 -28.860195 6.6960225
60.431423 -6.2876229 4.2485876
60.34964 -6.0875292 4.2414727
42.514019 -13.715267 5.2239943
32.924664 45.701588 7.9161663
42.937672 -12.231116 5.220974
43.135391 -11.606521 5.223762
43.148434 -11.480911 5.2214389
41.035191 -24.200521 6.6953402
101.41023 -5.794004 4.7368827
101.35523 -5.5246873 4.7336221
42.462521 -21.663748 6.6995149
39.730385 -24.528402 7.6712189
20.234781 -17.670589 -1.8785419
43.145618 -39.730057 9.6361198
20.379309 -17.387127 -1.8732404
20.452126 -17.3508 -1.8754725
14.725987 86.423096 -4.0883484
14.479613 86.434319 -4.0869508
41.916065 -20.625261 7.6751103
44.741425 -42.398701 10.127021
44.983929 -21.167828 8.1679564
45.108681 -20.910049 8.1686049
49.86533 -11.118811 7.1802192
40.779411 -26.32085 9.1446629
42.941792 -8.284832 7.1851821
40.792015 -21.108456 8.6536388
39.576359 -7.6355333 -1.8796414
40.990326 -20.7686 8.6577129
41.539902 -25.137644 9.147995
39.589027 -7.516211 -1.8791755
39.543705 -7.3789744 -1.8759147
39.521626 -7.267837 -1.8739582
39.503696 -7.1434321 -1.872095
39.516109 -7.0175457 -1.8716291
39.525265 -6.919591 -1.8712565
61.071693 -6.5266814 7.1825271
61.095612 -6.3567286 7.1832242
42.550011 -17.381666 8.659935
18.032013 -8.2976122 -1.3880143
18.025322 -8.2260132 -1.3855032
18.020569 -8.1593285 -1.383271
18.008707 -8.0934334 -1.3806202
57.182159 2.5266266 6.6935329
18.642017 -6.5575762 -1.3818758
61.426662 0.57896268 7.1836886
61.394882 0.76086557 7.1802044
36.392036 10.085572 6.2043524
56.909203 5.8408618 6.6900482
56.49276 52.514687 1.7907593
56.800331 52.524086 1.7961442
37.735451 46.136543 2.7795403
23.171194 10.379544 -2.3687446
23.123957 10.44088 -2.3670723
23.069323 10.498707 -2.3646574
23.027206 10.562134 -2.3635428
22.992105 10.633583 -2.3633568
22.944267 10.689345 -2.3614991
22.869806 10.810518 -2.3600128
41.405914 -20.069921 1.0683001
41.380852 -19.924152 1.066304
41.353188 -19.759907 1.0640757
22.514448 11.541077 -2.3603842
22.489212 11.607553 -2.3611274
22.469074 11.676744 -2.3624279
41.330147 -19.589647 1.0618939
35.634495 47.68565 2.776093
22.443153 11.747972 -2.3633568
41.344883 -19.455423 1.0608727
22.422594 11.817096 -2.3646574
22.396223 11.888247 -2.3655863
38.905514 12.140077 6.6959019
22.375238 11.957298 -2.3668869
22.368063 12.033895 -2.3696735
-1.0765332 -1.0520129 -0.89266223
-1.1247581 -0.99510211 -0.89062184
72.702492 57.68528 10.853122
38.711391 1.0475035 -0.89909339
38.682137 1.1615707 -0.89848995
38.69273 1.270058 -0.89881492
38.611107 1.3753211 -0.89700449
38.603119 1.4829965 -0.89691162
38.580845 1.5900432 -0.89649379
38.561974 1.7038829 -0.89616883
38.540771 1.817549 -0.89579749
38.525227 1.9313862 -0.89556539
21.753572 -11.420881 0.57042849
21.792475 -11.363788 0.57061422
38.523315 2.0458894 -0.8956582
67.641319 -11.016088 9.6316137
38.503101 2.159409 -0.89533323
37.500454 15.89483 6.6916866
38.529255 2.2620711 -0.89607602
38.621738 2.3892684 -0.89839709
38.511162 2.4904139 -0.89598316
38.475677 2.6027715 -0.89533323
38.485733 2.7181985 -0.89575112
38.454552 2.8171852 -0.89519399
38.406155 2.9282413 -0.89426559
38.382812 3.0477679 -0.89394057
38.376148 3.1550984 -0.89398706
38.397068 3.2648051 -0.89468336
38.357338 3.3760622 -0.89398706
38.355724 3.4838979 -0.89417273
38.353184 3.5984447 -0.8943584
41.832516 12.781525 7.1864791
38.341686 3.7189097 -0.8943584
38.335133 3.8263557 -0.89445132
0.50833166 -0.57355517 -0.40750134
0.51054722 -0.56921405 -0.40656242
38.330265 3.9340172 -0.89459056
0.51050365 -0.51282543 -0.40656641
0.50470811 -0.50382799 -0.40068832
0.51234323 -0.50727624 -0.40509689
-0.48057026 -0.49487182 -0.40909436
-0.47918639 -0.49621192 -0.40909436
0.52334511 -0.49464965 -0.40460706
0.5050202 -0.46228182 -0.40603378
0.50647897 -0.45684147 -0.40450352
0.51038074 -0.45377478 -0.40501359
0.50656891 -0.44770169 -0.40093285
0.51081693 -0.44546369 -0.40195307
0.52700067 -0.43165234 -0.40399343
38.310471 4.0468807 -0.89440483
38.326847 4.1568599 -0.8950547
38.322296 4.2714567 -0.89524049
38.297535 4.3837714 -0.89496189
38.306202 4.4999599 -0.89547253
38.370907 4.616221 -0.89728296
39.655293 9.4033546 7.678628
38.212177 4.7121782 -0.8938942
44.078205 -13.106785 1.0676502
38.194904 4.8183618 -0.89380139
44.012978 -12.953724 1.0651898
38.16061 4.9291172 -0.89333719
39.573639 9.7495193 7.6789985
44.025948 -12.824057 1.0646329
38.153744 5.0433607 -0.89352286
38.170132 5.1472321 -0.89421916
44.27626 -12.612423 1.0688572
38.167637 5.2690463 -0.89454406
38.337944 5.4085169 -0.89890772
38.226677 5.4949207 -0.89663303
38.125141 5.5958428 -0.89463699
38.18251 5.726851 -0.89640099
38.272148 5.8427801 -0.89886129
38.096588 5.9317122 -0.89514756
38.077766 6.0513592 -0.89514756
19.015888 23.957697 -2.8536406
38.099297 6.1570807 -0.89602953
18.976044 24.045103 -2.8577278
38.079983 6.2631373 -0.89598316
38.04631 6.3804336 -0.8956582
38.028351 6.48663 -0.8956582
38.010902 6.5997863 -0.89570463
37.980137 6.7174201 -0.89547253
37.966358 6.8175483 -0.89556539
37.961697 6.933033 -0.89593679
37.966515 7.0503941 -0.89654028
36.858952 15.996158 -1.873772
37.940067 7.1482787 -0.8963545
36.814011 16.114271 -1.8740515
37.940987 7.2719631 -0.89691162
36.799759 16.245975 -1.8759147
37.903542 7.3814402 -0.89654028
36.799091 16.360924 -1.8780576
37.881477 7.4938631 -0.89654028
36.780602 16.475883 -1.8794551
37.824478 7.5855341 -0.8956582
37.822006 7.7087469 -0.89616883
37.819321 7.8113728 -0.89658666
37.821995 7.9358873 -0.89723659
37.811966 8.0509987 -0.89756149
37.794674 8.1508007 -0.89765441
37.804039 8.2771854 -0.89848995
37.787117 8.3910608 -0.89867562
37.753788 8.4943295 -0.89844346
37.753315 8.6050692 -0.89900059
37.736927 8.7122555 -0.89918625
37.712448 8.8176146 -0.89918625
92.828346 41.271603 4.737535
37.277996 16.457102 7.6775174
45.498138 -4.0686045 1.0605477
47.396313 -57.373798 6.9429297
67.285446 -6.4077439 11.104608
45.601498 -36.88784 5.4720783
74.576202 48.024261 6.2026062
41.440529 -36.432034 6.4526362
41.660488 -36.189388 6.4533329
73.914001 49.145515 6.2067914
43.538052 -40.330791 6.940237
73.578392 49.535915 6.202467
73.217346 50.226898 6.2087445
73.043381 50.426907 6.2066522
64.38475 -37.442734 6.9486885
36.635448 40.545246 7.6798506
48.773144 -33.948738 6.9492965
68.718536 56.165401 6.2060938
44.892372 -24.222609 5.9652677
40.308392 41.871979 8.1683483
41.882805 -42.814129 8.4174681
39.322948 42.793392 8.1677914
41.773895 -32.426517 7.4321227
45.506901 -58.120621 10.374242
33.23893 49.371666 -1.3818316
50.820419 -21.613869 6.4582114
21.289408 -21.386236 -2.1101334
21.435764 -21.279203 -2.1120865
36.094845 42.351372 9.1423006
49.162796 -19.584133 7.4374113
20.658072 40.878307 1.0633794
40.537052 14.203817 4.0073586
19.905155 41.139137 1.0610583
40.421455 14.57655 4.0088449
19.292673 41.429897 1.0610583
19.452034 41.450314 1.0630546
40.334503 14.664627 4.0040145
19.496202 -11.571396 -2.1151495
19.58165 -11.319145 -2.1101334
19.665474 -11.285324 -2.1153355
34.149662 47.682186 9.6357956
18.716019 -13.677999 -1.6210009
20.748095 -9.0344486 -2.111248
20.851847 -9.0104399 -2.1192367
40.876812 -32.901051 9.8863821
40.515953 -37.308563 10.377035
43.078564 -36.974991 1.3180484
41.430218 -32.15974 9.881568
43.075523 -36.75098 1.3146131
43.138344 -36.596916 1.3134061
19.985296 -14.07719 -1.1399897
20.006525 -14.00872 -1.1389649
20.027533 -13.940243 -1.13794
20.077021 -13.886441 -1.1384059
20.095083 -13.810968 -1.1371015
20.131021 -13.747904 -1.1368221
21.041533 -18.175386 -0.64553869
20.166031 -13.689389 -1.1366358
20.83522 -18.099016 -0.64075726
20.187618 -13.621846 -1.135704
20.231266 -13.564116 -1.1358904
20.250776 -13.495378 -1.1348655
20.284069 -13.430822 -1.1344929
20.332172 -13.376069 -1.1349586
20.363409 -13.310218 -1.1344929
20.390448 -13.246771 -1.1339339
42.462502 -30.850813 9.8889742
20.424623 -13.182962 -1.1336544
42.548489 -30.732117 9.8889742
20.45356 -13.115832 -1.1330954
20.491791 -13.059738 -1.1331885
20.513569 -12.988194 -1.1322569
20.550325 -12.926208 -1.1321636
20.575626 -12.867066 -1.1316979
20.603531 -12.799636 -1.1311389
20.625595 -12.733652 -1.1303935
20.662777 -12.677051 -1.1304867
22.270931 -6.4113345 -1.6205823
39.070358 17.101923 4.9875112
39.000088 17.217352 4.9854202
38.963955 17.323425 4.9865823
45.103527 -31.581829 10.374073
22.8787 -8.2052784 -1.133468
22.84977 -8.1139746 -1.1307663
22.873743 -8.0461426 -1.1307663
22.941196 -7.8455806 -1.1306731
23.043367 -7.7370448 -1.1335613
30.228065 -38.829662 2.2947929
43.239983 -11.110186 8.4114599
25.896097 -9.45613 -0.64006096
25.974564 -9.3924074 -0.6412679
26.047997 -9.3419237 -0.64247489
26.128092 -9.2781105 -0.64372826
26.219635 -9.2231045 -0.64530659
26.305704 -9.1709118 -0.64679205
26.400839 -9.1163149 -0.64846325
26.469393 -9.0521765 -0.64948452
38.095524 9.6113625 6.4549909
28.295458 -21.837677 0.82983243
26.738939 -6.7858577 -0.64047873
67.484955 5.7380738 7.9203167
70.372223 -65.18821 6.7077823
66.507172 -6.532804 9.3919582
-0.020457491 -0.50934845 -0.15906513
-0.018645382 -0.50368643 -0.15727787
-0.017108183 -0.49992043 -0.15608639
24.199245 -38.606827 4.2509208
32.237202 47.311195 4.003324
39.763973 13.676326 7.9226584
20.324636 22.493717 -2.1198993
20.251198 22.554495 -2.1196203
20.1868 22.609478 -2.1194806
20.119625 22.661274 -2.1190622
20.057587 22.718863 -2.1192017
19.987413 22.783278 -2.1193411
19.92635 22.841997 -2.1196203
19.854485 22.904491 -2.1196203
41.141758 18.870928 7.4364686
26.160988 9.9533138 -0.64985585
26.067511 9.9907274 -0.64813828
25.985647 10.053088 -0.64688492
25.826756 10.157816 -0.64433175
25.755692 10.223406 -0.64335686
25.688116 10.284923 -0.64242846
25.618507 10.34015 -0.64140713
25.539524 10.391312 -0.64015377
31.975067 42.788651 4.9834671
35.448059 28.126011 -2.1102295
35.454998 28.303364 -2.115633
35.442814 28.456039 -2.1196394
22.351221 38.280193 -3.0996985
22.234566 38.295017 -3.0964899
22.090242 38.323189 -3.0931416
21.95389 38.364689 -3.0909092
63.126904 -1.0467796 10.372795
20.514296 39.173641 -3.092165
20.401684 39.241402 -3.0927231
20.297047 39.324818 -3.0945368
20.206251 39.418633 -3.0974665
31.93976 49.258205 5.4770947
22.25802 39.405083 -2.1105089
22.172323 39.510647 -2.112838
22.064829 39.577641 -2.1131177
19.626528 40.890469 -2.1151674
57.394108 5.5668778 10.864355
18.948219 41.310299 -2.119453
65.185524 -6.0126553 12.333723
34.937527 34.03463 -1.1324084
34.888981 34.201603 -1.1343117
34.88303 34.387341 -1.1372362
34.869228 34.566254 -1.1399287
35.14019 39.579342 7.4385242
20.906446 -9.39573 3.7657356
34.546349 40.064724 7.4349055
34.297031 40.241932 7.4310088
60.463223 -6.4616542 4.2520757
42.434879 -14.247942 5.2346797
60.613449 -5.2390351 4.2543077
60.639492 -4.8789377 4.2540288
22.376417 12.898216 -6.7613072
60.60994 -4.6956048 4.2509594
42.372223 -21.926159 6.7050819
42.456188 -21.819515 6.7087007
42.528149 -21.54777 6.7003503
35.013969 41.34557 8.9013901
64.650482 -15.999375 6.2135415
100.10101 -23.865889 7.1959381
41.998638 -13.824695 6.2140794
60.67234 4.2852106 4.2531919
60.623104 4.441256 4.2505407
42.601727 -11.990851 6.2199244
42.641296 -11.74537 6.2160277
38.585594 42.227032 9.3978024
39.738846 -24.687164 7.6861343
39.891243 -24.474121 7.6890521
45.044571 7.4086261 4.2589097
31.723627 62.341759 -1.6240129
43.075325 -39.902149 9.6468201
20.161983 -17.514193 -1.8675203
20.13381 -17.391308 -1.8604052
20.259504 -17.389044 -1.8669623
15.174943 86.061394 -4.075305
46.369732 -30.901388 9.1549463
46.484257 -30.778923 9.1594858
46.552288 -30.625683 9.1549463
45.083988 -21.06134 8.1754141
38.575287 -13.192228 7.6812205
41.092155 -20.6672 8.6662302
61.124634 -7.2453947 7.1980915
61.113052 -7.0710216 7.1943746
39.464115 -6.7811751 -1.8673434
39.478149 -6.6630554 -1.8670639
18.859987 -6.5751243 -1.8634124
39.472126 -6.5416455 -1.8658527
61.241772 -6.1775193 7.1980915
39.446857 -6.4243288 -1.8638031
39.406559 -6.2978005 -1.861008
39.472805 -5.9626541 -1.8616602
42.824566 -22.943087 9.1535501
39.751839 8.9438772 5.7264171
42.622414 13.709188 5.2358418
42.428352 14.17988 5.2314277
18.016663 -8.0366106 -1.3795041
18.01306 -7.9710073 -1.3774112
17.993235 -7.9022236 -1.3742025
18.014313 -7.8440642 -1.3739235
18.016003 -7.7850232 -1.372389
18.028017 -7.7268181 -1.3715518
18.188847 -7.3081822 -1.3707148
18.216011 -7.2563977 -1.3711332
18.239317 -7.2030506 -1.3712728
18.25071 -7.1413531 -1.3704357
18.286081 -7.1000476 -1.3716913
18.334995 -7.056509 -1.3737839
18.34589 -6.9946089 -1.372947
57.285088 2.2006922 6.7039862
18.355461 -6.9469366 -1.372389
18.373457 -6.8878355 -1.3721098
18.403166 -6.8367639 -1.3728074
18.483295 -6.6288986 -1.3730863
18.562313 -6.5914955 -1.3774112
57.233429 3.2098811 6.7035222
36.401859 10.204687 6.2111616
61.496273 1.6640465 7.1941423
43.504868 4.9798346 7.1942606
43.43821 5.3566322 7.1906943
39.613941 9.8768587 6.7075744
48.670261 -61.428612 5.4803476
41.470688 -20.712683 1.0762383
41.449562 -20.539684 1.07401
22.889091 10.741529 -2.3588979
22.814356 10.862351 -2.3574116
41.440376 -20.391193 1.0722923
22.780119 10.933967 -2.3574116
22.740532 10.993212 -2.356483
41.43063 -20.233929 1.070482
22.713327 11.058412 -2.3568544
22.68026 11.130597 -2.3570402
36.526146 47.140186 2.7810309
22.61025 11.263205 -2.3566685
22.582466 11.323248 -2.3568544
36.473598 47.344887 2.7870867
22.557863 11.389862 -2.3575976
22.523968 11.45675 -2.3575976
36.061466 47.664558 2.7872732
35.867142 47.718513 2.7838259
72.60862 57.962723 10.864737
37.984493 14.939525 6.7059536
67.678688 -11.216269 9.6413565
32.491734 42.946236 3.7657335
31.379642 43.814487 3.7685237
0.50430954 -0.54623544 -0.39529508
0.51232231 -0.54843807 -0.39905086
-0.46111757 -0.48017743 -0.39481175
-0.46913207 -0.47597939 -0.39634204
0.51154739 -0.47920021 -0.39383057
0.50778186 -0.44109696 -0.39889249
0.50255835 -0.43135351 -0.39277139
0.50506264 -0.42575437 -0.39175117
35.792812 13.368153 7.1987138
19.956478 23.02215 -2.8424935
19.896141 23.074316 -2.8424935
19.814634 23.118124 -2.8406358
19.220617 23.642538 -2.8426793
19.162903 23.714949 -2.844537
19.108246 23.799883 -2.8475096
19.059546 23.86694 -2.8495531
36.891685 15.25841 -1.8617535
25.197111 -47.189987 4.9908986
36.827023 15.609391 -1.8652939
36.811771 15.731946 -1.8668776
36.793358 15.860955 -1.8684614
42.204895 65.539429 1.8098388
41.972801 65.555389 1.8072392
41.351486 65.86882 1.8056607
93.146858 40.77235 4.7417278
45.41758 -8.4750576 1.0726637
93.087769 41.095421 4.7452679
31.412167 -43.378262 4.9966574
37.404095 16.23274 7.6823311
34.898258 49.932617 4.2598886
48.142422 -56.908394 6.9542627
34.460072 36.837723 -2.35237
66.782318 -25.461628 4.9977722
56.028175 6.581821 10.628841
84.725952 -14.832765 4.0112062
40.990604 -37.076855 6.4635544
41.346268 -36.760582 6.4698267
73.80764 49.391258 6.2101398
73.412682 50.022484 6.2119532
36.763153 40.458931 7.6829123
48.717205 -34.112156 6.9548717
48.909599 -33.828739 6.9544077
69.002563 56.056889 6.2166967
42.467304 -19.983595 5.4885855
44.90855 -24.413807 5.9775796
42.470753 -19.840546 5.4818487
68.609535 56.436802 6.2122326
21.457819 -19.641808 5.4808726
23.024912 -23.660503 -3.080111
41.79958 -42.953438 8.4233131
39.21666 42.917652 8.1705751
33.312626 48.889484 -1.373522
33.30526 49.136242 -1.3781643
45.746883 -58.05048 10.387324
21.342369 -21.305153 -2.1087382
45.249344 -20.023409 6.9542022
24.000885 -10.867087 -3.0810137
39.482098 -22.210714 7.4426289
49.104053 -19.879213 7.4452047
40.547291 14.342636 4.0125604
40.393173 14.9499 4.0183196
42.262119 6.2030501 4.9951773
42.259071 6.4514403 4.9991264
19.461544 -11.477454 -2.107904
19.46142 -11.395128 -2.1040025
19.495144 -11.337335 -2.1040025
26.962488 -6.8425903 -2.5952151
41.908714 8.2905464 4.9958739
41.824043 8.7756052 4.9974999
40.744236 -33.171024 9.8989716
40.953876 -28.506107 9.4012833
40.754078 -37.083359 10.381479
41.382076 -32.307968 9.8915663
20.260731 -18.223642 -0.63267988
20.415104 -17.947739 -0.63110155
42.411095 -30.994781 9.8971205
21.045938 -17.134087 -0.63008028
21.141634 -17.101835 -0.63133365
21.346127 -17.070908 -0.63458318
21.445202 -17.046064 -0.63602221
21.54936 -17.036983 -0.63778627
40.351208 -11.99855 7.9315457
21.160128 -11.417385 -1.1212633
21.267876 -11.394178 -1.1251762
21.300941 -11.344994 -1.1254557
21.32058 -11.269615 -1.1246171
21.332512 -11.19982 -1.1235924
39.189487 17.00757 4.9958739
23.067842 -27.755768 0.83790976
38.942616 17.444359 4.9900665
22.87726 -7.9756589 -1.1298345
22.872496 -7.8979645 -1.128437
74.722237 47.511692 2.0558267
74.495056 47.678204 2.0534592
25.386219 -9.8568611 -0.63226211
25.458273 -9.7980137 -0.63332981
25.531898 -9.7343683 -0.63439751
25.604227 -9.6903553 -0.63560444
25.679478 -9.6267138 -0.63671857
25.74729 -9.5651016 -0.63769341
25.822681 -9.5111322 -0.6389004
37.799442 10.953142 6.4656911
26.272552 -6.9905863 -0.63119441
26.388655 -6.9426279 -0.63351548
26.505163 -6.8843217 -0.63579017
26.639286 -6.8447628 -0.63857543
44.517353 47.588932 3.0389166
22.262083 -17.600466 1.3234353
22.303127 -17.519335 1.3225968
41.469025 7.2002158 7.9300647
66.631546 -6.1460342 9.4042063
37.557453 12.326485 7.4475584
-0.023316097 -0.47673264 -0.14893737
31.351288 48.074436 4.0133691
39.9254 13.482952 7.939693
57.395367 67.344032 2.0543411
41.141384 19.027414 7.4471684
33.491482 41.714626 4.9908986
25.453115 10.44947 -0.63880754
25.386871 10.500017 -0.6378327
25.322392 10.566626 -0.63704354
25.265123 10.630863 -0.63639361
25.222479 10.690724 -0.63602221
25.157553 10.751378 -0.63518667
25.105291 10.822439 -0.63472241
25.005402 10.851919 -0.63286555
24.941881 10.917589 -0.63212281
24.870882 10.979738 -0.63119441
24.80551 11.028562 -0.63026595
76.423592 -26.883013 3.7780094
41.718357 41.355869 5.4804387
35.4711 27.812912 -2.1020308
35.465466 27.96876 -2.1063166
88.803139 16.218325 8.4219551
21.842531 38.40295 -3.0893748
21.716707 38.446754 -3.0877006
21.598507 38.488113 -3.0861659
21.489008 38.544792 -3.085887
21.358156 38.594646 -3.0844917
21.252207 38.657646 -3.0847709
63.204205 -1.246689 10.386089
21.143223 38.715084 -3.0846312
21.02243 38.783081 -3.0847709
20.931238 38.8573 -3.0863056
20.808128 38.921104 -3.0861659
20.712189 39.01968 -3.0890956
20.60718 39.068481 -3.0886772
29.088848 -22.03965 4.2678418
28.273403 -15.588446 3.7755947
19.740116 40.527096 -2.1022172
19.702698 40.720703 -2.1095774
35.044949 33.175129 -1.1203852
35.079636 33.382561 -1.1242846
34.953606 33.848759 -1.1296694
65.235344 -5.8335752 12.340017
35.038708 39.687702 7.4404726
34.679657 40.007072 7.4410295
22.395119 13.260269 1.8199464
22.154594 -15.709559 -3.8169618
41.110462 -41.297436 8.1895027
42.4846 -14.40504 5.2460628
41.214767 -41.142899 8.1844921
41.322475 -41.020668 8.1831007
42.577454 -14.147128 5.2467594
60.724163 -5.0671325 4.2610044
60.781982 -4.5382161 4.2621207
39.853687 -26.388582 6.7176075
32.858021 45.878704 7.9309192
27.899038 -7.6846757 4.7543468
42.824741 -21.221134 6.7170515
42.901604 -21.110207 6.7198343
42.016254 -13.960659 6.2224298
21.650282 -9.5805244 -3.3273506
42.63488 -11.879811 6.2202029
40.02018 -24.38051 7.6991038
15.389292 85.787888 -4.0644975
61.498207 -0.30053931 5.7375636
46.855911 -30.242895 9.1624041
43.874222 -16.447552 7.6981311
42.610634 -10.418873 7.2069058
61.336552 4.4935231 5.7377496
40.491234 4.8713074 5.7317057
43.103848 -8.1835203 7.2082028
43.086662 -8.0401011 7.2010698
43.128914 -7.9312 7.2046366
40.267971 6.3994288 5.7303138
39.389362 -6.1893406 -1.8594241
39.369122 -6.0594873 -1.857561
39.399414 -5.8320532 -1.8573745
39.382935 -5.7102537 -1.8557907
39.362125 -5.5880427 -1.8540206
39.360783 -5.4827676 -1.8532752
39.341251 -5.3611026 -1.8515981
39.958633 8.384202 5.7381077
42.944683 -22.872564 9.1672506
42.907345 -16.659895 8.6721544
18.018314 -7.6631699 -1.36918
18.029942 -7.6050224 -1.368343
18.038225 -7.549253 -1.3673664
18.062387 -7.4964623 -1.3675059
18.082706 -7.4420791 -1.3673664
18.111362 -7.3984857 -1.368064
18.147461 -7.3467913 -1.3690406
42.060085 15.566839 5.244669
18.364147 -6.7639689 -1.3684825
18.354855 -6.7023964 -1.3663899
18.403961 -6.6548758 -1.3684825
42.026569 42.871197 2.7996643
95.56591 8.9663658 6.7119675
38.577415 45.795952 2.7923973
38.433681 45.901016 2.7918382
45.454853 -7.4027929 8.6769686
38.963955 12.270338 6.7114658
-1.0715873 -1.002423 -0.87021816
-1.0803466 -0.99551976 -0.87123835
-1.1025258 -0.98127949 -0.87531906
36.644497 39.641804 3.7749412
22.00388 -13.499845 0.5993492
-0.45018813 -0.47158912 -0.38665026
0.50111246 -0.4007493 -0.38052917
0.51307243 -0.40782389 -0.38869062
21.05336 21.984955 -2.8398924
20.981447 22.0481 -2.8395209
20.901754 22.079813 -2.8365483
20.815905 22.12797 -2.8343189
20.741793 22.172918 -2.8326468
20.675716 22.226387 -2.8320894
19.976349 22.899311 -2.8350623
19.680241 23.09153 -2.8306034
19.486933 23.273077 -2.8319039
19.414989 23.335718 -2.8320894
19.361187 23.403641 -2.8337615
36.95528 14.534731 -1.8518777
19.307781 23.488977 -2.8367343
19.269255 23.559195 -2.8395209
36.955864 14.669177 -1.8542068
36.92701 14.784714 -1.8549523
36.944866 14.911698 -1.8579336
36.903076 15.01482 -1.8579336
36.892693 15.145849 -1.859797
43.706604 42.577087 4.2667246
42.513912 65.565895 1.8142487
41.780857 66.141899 1.8163377
37.426735 16.382473 7.6975136
92.572014 9.2399178 8.6794519
92.462646 9.4898815 8.671649
55.510742 5.2082338 9.1601343
52.091064 -16.985743 2.5551012
52.152569 -16.49369 2.5508156
27.24675 -11.213613 2.0603273
72.462387 -22.236975 3.5347507
64.679405 -2.7561057 10.63608
63.138287 -16.222904 3.0400348
64.687294 -2.5641861 10.63608
63.236496 -16.048275 3.0424571
34.316364 40.737579 6.22893
34.543472 36.490398 -2.3432398
34.498466 36.672966 -2.3479912
73.470352 -27.806105 5.4931827
41.682312 -36.400246 6.4714527
42.139641 -35.952507 6.477725
43.813885 -40.345417 6.9650931
62.261097 -16.96265 4.5124068
29.867785 -25.177748 5.4901009
32.828205 51.272869 -2.8391669
44.672066 -24.945911 5.9833875
44.771954 -24.84815 5.9880333
42.450829 -20.120827 5.4936962
40.526131 41.848953 8.1872759
39.678055 42.653893 8.1872759
33.443802 48.173168 -1.3615453
33.350677 48.616417 -1.3687872
62.407452 -14.683509 5.9813118
22.438017 13.285669 3.0494206
46.104145 -9.0285625 5.4939284
72.729706 62.712215 6.7153163
72.558868 62.918949 6.7157345
20.604149 -21.674332 -2.0911596
20.68252 -21.635456 -2.0929732
36.315731 42.370274 9.1682396
49.076199 -20.047611 7.4504938
39.895603 -14.308266 6.9634013
38.479176 44.390266 9.6516838
26.062325 -9.3470621 -2.5831392
26.149734 -9.2857952 -2.5888984
40.607708 14.499703 4.0227785
40.469135 14.841649 4.0214782
42.806492 -15.057751 7.4552751
34.071323 47.854527 9.6513596
44.505745 -18.928246 7.9458513
41.332634 -9.3450375 6.9621038
20.539106 -9.0203133 -2.0928555
39.996204 -34.123779 9.9056377
40.190479 -33.879505 9.9037857
40.376213 -33.664074 9.9045267
43.205841 -37.98399 1.3356421
40.874226 -33.063869 9.9052668
41.635479 -22.634453 8.9287758
20.166979 -18.037695 -0.62817699
20.187536 -17.948549 -0.62715572
20.189762 -17.843555 -0.62557739
20.38415 -17.801029 -0.62831628
42.711891 -30.646416 9.9045267
20.453852 -17.352264 -0.62274569
20.534254 -17.30983 -0.62353486
20.58864 -17.257557 -0.62372053
20.633749 -17.203598 -0.62372053
20.72319 -17.174194 -0.62488109
20.820448 -17.15695 -0.62636656
20.931585 -17.14451 -0.62817699
21.226927 -16.276224 -0.62102807
21.315573 -16.25576 -0.6223743
21.427097 -16.234596 -0.6241383
21.532673 -16.214251 -0.62580949
39.384335 16.831362 5.0086508
39.316669 16.948709 5.0067925
23.456392 -27.72743 0.84320188
22.780445 -7.0691571 -1.1123191
25.752165 -7.2483068 -0.62112093
25.846169 -7.2017941 -0.62293136
25.940674 -7.1452522 -0.62469536
26.035761 -7.0932817 -0.62650579
26.150597 -7.0363903 -0.62873405
65.983917 -47.083252 3.7801523
40.522709 40.877876 4.0249486
39.339916 15.750786 6.9621038
37.61842 12.215725 7.452002
37.576988 12.449235 7.4582973
32.553833 47.45483 4.0241117
32.328598 47.695347 4.0291338
26.942608 -9.3929539 1.3306091
21 4 -30
25 34 -30
63 36 -30
34 52 -30
16 48 -30
51 41 -30
98 88 -30
92 52 -30
15 14 -30
74 43 -30
43 5 -30
42 21 -30
21 13 -30
100 41 -30
24 36 -30
83 44 -30
91 7 -30
29 54 -30
94 62 -30
57 61 -30
61 7 -30
1 10 -30
46 44 -30
13 12 -30
57 86 -30
54 99 -30
91 48 -30
72 63 -30
60 71 -30
56 35 -30
58 38 -30
31 49 -30
96 59 -30
54 89 -30
73 10 -30
1 85 -30
17 1 -30
95 14 -30
45 59 -30
26 1 -30
45 79 -30
52 87 -30
26 23 -30
1 38 -30
45 56 -30
72 3 -30
45 54 -30
3 92 -30
13 56 -30
80 37 -30
65 32 -30
21 33 -30
33 67 -30
47 29 -30
26 72 -30
81 22 -30
2 32 -30
60 80 -30
6 60 -30
17 3 -30
68 40 -30
5 64 -30
94 59 -30
56 58 -30
66 87 -30
94 30 -30
19 14 -30
15 3 -30
81 13 -30
31 58 -30
36 11 -30
31 37 -30
95 90 -30
16 100 -30
1 84 -30
2 20 -30
24 58 -30
84 69 -30
68 91 -30
26 33 -30
77 19 -30
15 95 -30
84 29 -30
49 16 -30
41 79 -30
73 28 -30
90 3 -30
64 84 -30
44 32 -30
35 45 -30
15 89 -30
64 90 -30
46 99 -30
58 14 -30
89 35 -30
98 18 -30
53 12 -30
12 37 -30
40 61 -30
52 32 -30
91 77 -30
59 80 -30
31 75 -30
15 75 -30
6 50 -30
19 72 -30
90 34 -30
62 35 -30
85 71 -30
100 73 -30
6 98 -30
90 10 -30
9 54 -30
98 1 -30
66 50 -30
84 8 -30
78 43 -30
88 8 -30
69 54 -30
82 26 -30
55 52 -30
97 44 -30
38 10 -30
31 22 -30
33 82 -30
46 38 -30
79 88 -30
99 40 -30
93 97 -30
92 10 -30
98 75 -30
17 75 -30
69 56 -30
82 37 -30
10 16 -30
14 16 -30
19 63 -30
60 56 -30
72 90 -30
29 56 -30
23 27 -30
45 2 -30
66 44 -30
93 58 -30
40 84 -30
67 37 -30
10 35 -30
63 79 -30
91 96 -30
67 52 -30
63 81 -30
67 82 -30
95 26 -30
89 66 -30
67 70 -30
74 90 -30
96 18 -30
43 61 -30
13 87 -30
70 52 -30
22 88 -30
40 31 -30
22 54 -30
61 12 -30
50 80 -30
63 12 -30
12 30 -30
45 6 -30
7 34 -30
23 26 -30
3 96 -30
15 50 -30
14 9 -30
62 26 -30
95 31 -30
30 16 -30
18 21 -30
98 91 -30
75 59 -30
3 76 -30
38 17 -30
39 49 -30
98 84 -30
6 5 -30
17 28 -30
82 71 -30
24 96 -30
20 89 -30
56 81 -30
66 2 -30
63 47 -30
69 32 -30
68 66 -30
22 94 -30
76 24 -30
21 65 -30
93 59 -30
65 90 -30
94 70 -30
46 10 -30
98 27 -30
32 21 -30
74 3 -30
61 29 -30
83 26 -30
30 97 -30
73 98 -30
28 92 -30
16 50 -30
37 91 -30
25 57 -30
56 17 -30
67 20 -30
7 61 -30
42 52 -30
22 39 -30
79 54 -30
11 52 -30
56 23 -30
33 91 -30
48 14 -30
39 72 -30
12 67 -30
15 79 -30
68 51 -30
69 92 -30
59 76 -30
9 26 -30
48 67 -30
38 89 -30
70 11 -30
79 100 -30
64 89 -30
4 72 -30
11 36 -30
14 10 -30
49 52 -30
34 12 -30
70 48 -30
90 37 -30
99 11 -30
29 9 -30
86 89 -30
86 33 -30
7 23 -30
73 76 -30
34 51 -30
76 49 -30
39 79 -30
72 1 -30
66 37 -30
63 14 -30
89 96 -30
78 10 -30
43 67 -30
47 93 -30
29 27 -30
2 15 -30
67 87 -30
99 73 -30
62 72 -30
48 47 -30
22 75 -30
47 13 -30
5 19 -30
65 70 -30
55 27 -30
36 95 -30
22 13 -30
57 17 -30
31 3 -30
9 60 -30
81 10 -30
26 47 -30
49 24 -30
19 62 -30
47 18 -30
8 21 -30
93 54 -30
85 49 -30
24 49 -30
19 31 -30
28 6 -30
77 1 -30
70 33 -30
17 100 -30
87 26 -30
11 67 -30
87 88 -30
13 35 -30
64 83 -30
48 10 -30
1 55 -30
82 45 -30
61 66 -30
93 84 -30
67 63 -30
14 94 -30
68 91 -30
94 37 -30
75 11 -30
89 62 -30
36 51 -30
28 74 -30
39 93 -30
61 2 -30
27 8 -30
63 27 -30
63 45 -30
23 75 -30
10 16 -30
10 76 -30
30 24 -30
69 98 -30
66 15 -30
86 92 -30
25 74 -30
53 12 -30
77 33 -30
37 15 -30
25 97 -30
16 51 -30
5 30 -30
30 19 -30
74 52 -30
93 84 -30
19 2 -30
11 49 -30
77 32 -30
98 94 -30
46 83 -30
86 22 -30
9 90 -30
85 85 -30
22 21 -30
51 98 -30
18 18 -30
1 74 -30
47 30 -30
92 21 -30
33 36 -30
56 52 -30
89 66 -30
52 18 -30
97 1 -30
11 42 -30
35 48 -30
15 95 -30
38 99 -30
79 11 -30
20 81 -30
9 89 -30
98 9 -30
62 97 -30
90 5 -30
17 22 -30
92 72 -30
25 80 -30
89 28 -30
97 86 -30
28 60 -30
79 63 -30
7 94 -30
57 96 -30
44 88 -30
7 15 -30
68 15 -30
3 18 -30
75 16 -30
14 64 -30
72 82 -30
85 63 -30
5 62 -30
43 45 -30
89 39 -30
30 17 -30
50 61 -30
31 57 -30
54 87 -30
52 49 -30
26 10 -30
64 46 -30
76 18 -30
63 50 -30
34 28 -30
65 57 -30
61 2 -30
20 17 -30
63 14 -30
61 51 -30
4 91 -30
19 54 -30
3 49 -30
10 56 -30
88 13 -30
56 13 -30
75 19 -30
58 50 -30
37 72 -30
52 22 -30
51 16 -30
78 63 -30
69 49 -30
79 31 -30
62 40 -30
34 66 -30
82 4 -30
19 84 -30
5 28 -30
91 44 -30
92 46 -30
56 66 -30
17 66 -30
68 53 -30
89 71 -30
26 40 -30
86 3 -30
2 7 -30
52 33 -30
89 13 -30
24 74 -30
30 5 -30
78 48 -30
40 34 -30
27 82 -30
77 19 -30
79 84 -30
36 95 -30
49 3 -30
99 90 -30
73 24 -30
81 11 -30
79 82 -30
69 82 -30
66 57 -30
46 89 -30
31 76 -30
45 60 -30
23 84 -30
93 50 -30
17 69 -30
20 96 -30
52 55 -30
42 53 -30
10 41 -30
42 34 -30
16 22 -30
96 94 -30
55 64 -30
75 73 -30
73 73 -30
61 3 -30
48 6 -30
14 70 -30
41 6 -30
71 10 -30
26 90 -30
5 29 -30
97 46 -30
33 6 -30
38 26 -30
91 54 -30
99 39 -30
47 6 -30
54 74 -30
78 26 -30
46 90 -30
80 45 -30
95 93 -30
14 88 -30
50 37 -30
97 27 -30
26 53 -30
8 74 -30
50 92 -30
31 40 -30
18 22 -30
93 68 -30
12 91 -30
73 65 -30
16 2 -30
91 61 -30
92 22 -30
5 38 -30
67 71 -30
77 16 -30
59 73 -30
95 36 -30
77 54 -30
10 79 -30
45 40 -30
18 62 -30
13 10 -30
82 24 -30
52 54 -30
89 68 -30
8 31 -30
80 99 -30
52 37 -30
88 18 -30
59 65 -30
86 17 -30
89 32 -30
52 66 -30
85 61 -30
44 81 -30
53 61 -30
95 17 -30
22 76 -30
41 73 -30
81 81 -30
40 88 -30
11 72 -30
38 14 -30
8 26 -30
84 66 -30
90 21 -30
82 78 -30
4 33 -30
43 40 -30
46 38 -30
20 50 -30
50 14 -30
66 23 -30
89 58 -30
96 70 -30
38 87 -30
9 100 -30
58 47 -30
66 65 -30
72 49 -30
30 13 -30
21 63 -30
90 24 -30
48 85 -30
15 45 -30
22 34 -30
94 24 -30
48 11 -30
46 88 -30
69 93 -30
9 58 -30
80 18 -30
58 89 -30
16 23 -30
6 39 -30
23 87 -30
51 95 -30
50 40 -30
70 49 -30
76 84 -30
93 50 -30
17 38 -30
73 16 -30
48 18 -30
56 68 -30
11 64 -30
26 42 -30
33 35 -30
82 100 -30
9 87 -30
38 83 -30
74 88 -30
77 75 -30
80 46 -30
23 55 -30
81 67 -30
56 49 -30
4 28 -30
65 3 -30
98 20 -30
23 8 -30
35 100 -30
1 68 -30
34 82 -30
67 94 -30
69 57 -30
76 94 -30
96 4 -30
20 27 -30
1 42 -30
82 81 -30
8 89 -30
29 63 -30
17 45 -30
65 14 -30
16 87 -30
73 51 -30
86 73 -30
70 71 -30
54 88 -30
64 74 -30
44 91 -30
19 92 -30
94 38 -30
18 94 -30
31 99 -30
74 90 -30
40 55 -30
52 56 -30
99 69 -30
69 15 -30
7 93 -30
17 45 -30
65 86 -30
15 70 -30
73 31 -30
44 69 -30
21 62 -30
60 15 -30
52 77 -30
60 82 -30
28 34 -30
72 67 -30
40 23 -30
74 38 -30
91 42 -30
4 50 -30
86 20 -30
94 50 -30
5 8 -30
19 30 -30
90 14 -30
50 11 -30
28 61 -30
77 79 -30
37 36 -30
60 16 -30
21 83 -30
34 60 -30
6 7 -30
50 48 -30
100 53 -30
97 85 -30
73 42 -30
34 29 -30
50 5 -30
10 91 -30
18 59 -30
1 45 -30
71 29 -30
75 8 -30
17 87 -30
75 37 -30
69 9 -30
49 26 -30
15 50 -30
26 15 -30
2 74 -30
51 26 -30
16 85 -30
7 65 -30
41 68 -30
55 58 -30
27 8 -30
55 49 -30
88 29 -30
56 4 -30
67 83 -30
93 36 -30
91 93 -30
61 57 -30
42 86 -30
71 95 -30
60 74 -30
73 75 -30
58 79 -30
91 98 -30
46 97 -30
7 24 -30
56 13 -30
73 44 -30
94 80 -30
99 60 -30
62 91 -30
95 52 -30
83 8 -30
9 76 -30
45 31 -30
71 4 -30
4 43 -30
30 13 -30
73 72 -30
62 70 -30
21 21 -30
94 76 -30
33 18 -30
71 26 -30
97 70 -30
38 11 -30
12 32 -30
14 47 -30
91 74 -30
22 36 -30
57 44 -30
39 60 -30
86 21 -30
25 10 -30
92 38 -30
80 12 -30
58 73 -30
40 43 -30
42 10 -30
20 90 -30
31 57 -30
100 43 -30
41 14 -30
89 31 -30
39 62 -30
66 95 -30
6 57 -30
7 91 -30
29 31 -30
53 72 -30
20 32 -30
84 78 -30
56 75 -30
72 97 -30
36 91 -30
86 67 -30
48 38 -30
61 88 -30
51 1 -30
70 41 -30
62 36 -30
36 67 -30
44 42 -30
10 72 -30
24 62 -30
43 43 -30
93 78 -30
72 48 -30
4 43 -30
96 40 -30
86 81 -30
58 33 -30
18 70 -30
72 20 -30
70 93 -30
61 31 -30
28 48 -30
50 23 -30
89 59 -30
46 12 -30
72 41 -30
6 16 -30
70 78 -30
63 74 -30
72 58 -30
65 57 -30
90 74 -30
41 60 -30
43 64 -30
79 64 -30
57 91 -30
46 36 -30
38 95 -30
59 78 -30
5 56 -30
41 76 -30
96 47 -30
43 18 -30
76 5 -30
91 99 -30
14 7 -30
8 4 -30
80 48 -30
63 22 -30
64 93 -30
85 20 -30
36 82 -30
55 73 -30
77 65 -30
3 33 -30
73 43 -30
61 68 -30
89 3 -30
85 16 -30
8 27 -30
15 73 -30
33 22 -30
28 12 -30
21 42 -30
85 84 -30
35 21 -30
3 22 -30
3 10 -30
46 31 -30
26 48 -30
63 98 -30
91 23 -30
18 31 -30
78 2 -30
99 37 -30
81 13 -30
9 65 -30
86 37 -30
77 58 -30
30 13 -30
42 16 -30
86 96 -30
37 40 -30
57 83 -30
70 83 -30
30 84 -30
80 72 -30
59 97 -30
55 36 -30
51 53 -30
72 83 -30
17 32 -30
47 2 -30
20 75 -30
11 50 -30
88 52 -30
65 25 -30
100 2 -30
64 8 -30
36 33 -30
90 17 -30
68 22 -30
89 26 -30
70 95 -30
61 72 -30
47 84 -30
54 63 -30
16 1 -30
16 35 -30
75 26 -30
36 14 -30
30 1 -30
90 81 -30
54 53 -30
88 89 -30
37 78 -30
5 5 -30
51 45 -30
82 20 -30
39 43 -30
92 37 -30
78 45 -30
99 45 -30
97 14 -30
32 24 -30
92 67 -30
37 21 -30
67 27 -30
1 72 -30
31 88 -30
12 68 -30
17 69 -30
24 67 -30
13 5 -30
39 4 -30
99 30 -30
40 77 -30
26 91 -30
21 23 -30
4 52 -30
46 95 -30
71 34 -30
67 89 -30
12 67 -30
61 43 -30
7 72 -30
62 23 -30
40 85 -30
42 5 -30
89 80 -30
60 40 -30
61 51 -30
16 86 -30
41 88 -30
60 45 -30
92 57 -30
91 62 -30
91 10 -30
50 54 -30
76 62 -30
48 34 -30
34 9 -30
9 25 -30
45 50 -30
81 86 -30
81 40 -30
25 41 -30
91 92 -30
78 31 -30
79 38 -30
27 70 -30
94 70 -30
83 36 -30
79 33 -30
42 6 -30
94 89 -30
92 79 -30
50 100 -30
56 46 -30
49 36 -30
31 81 -30
28 7 -30
21 70 -30
98 50 -30
52 29 -30
87 31 -30
50 33 -30
52 33 -30
20 82 -30
17 61 -30
87 62 -30
2 78 -30
41 51 -30
29 48 -30
96 29 -30
35 79 -30
9 62 -30
85 81 -30
83 83 -30
31 35 -30
11 69 -30
17 60 -30
1 68 -30
44 21 -30
49 60 -30
33 87 -30
22 34 -30
17 14 -30
84 45 -30
61 32 -30
74 95 -30
10 34 -30
9 94 -30
15 91 -30
28 97 -30
77 90 -30
65 93 -30
2 66 -30
12 45 -30
38 60 -30
57 70 -30
47 78 -30
4 15 -30
43 39 -30
59 3 -30
70 84 -30
49 31 -30
18 9 -30
77 32 -30
100 4 -30
28 28 -30
46 92 -30
73 47 -30
9 84 -30
43 98 -30
96 99 -30
68 94 -30
28 23 -30
8 70 -30
13 66 -30
24 35 -30
50 25 -30
17 67 -30
33 93 -30
50 84 -30
49 29 -30
12 94 -30
72 84 -30
92 81 -30
19 34 -30
30 14 -30
85 49 -30
7 64 -30
23 14 -30
86 36 -30
32 9 -30
22 81 -30
85 38 -30
99 18 -30
31 100 -30
1 79 -30
28 64 -30
24 99 -30
99 15 -30
31 18 -30
100 13 -30
83 36 -30
61 90 -30
100 84 -30
55 85 -30
19 86 -30
45 40 -30
18 30 -30
77 68 -30
99 59 -30
67 99 -30
37 94 -30
63 60 -30
45 61 -30
26 27 -30
30 26 -30
39 13 -30
61 100 -30
54 12 -30
35 8 -30
48 53 -30
46 93 -30
44 63 -30
74 72 -30
83 72 -30
31 49 -30
22 19 -30
95 36 -30
31 91 -30
49 56 -30
17 78 -30
33 8 -30
90 46 -30
59 43 -30
57 93 -30
3 5 -30
97 48 -30
49 92 -30
62 74 -30
63 44 -30
97 45 -30
45 18 -30
64 39 -30
6 94 -30
29 54 -30
49 97 -30
31 34 -30
56 73 -30
79 14 -30
67 87 -30
58 69 -30
43 54 -30
68 91 -30
45 82 -30
16 60 -30
77 12 -30
4 21 -30
82 67 -30
59 87 -30
12 39 -30
40 61 -30
88 70 -30
94 43 -30
94 24 -30
57 61 -30
10 66 -30
29 53 -30
72 49 -30
95 68 -30
30 11 -30
27 58 -30
74 83 -30
79 55 -30
49 37 -30
41 61 -30
28 80 -30
73 15 -30
2 18 -30
57 95 -30
41 65 -30
7 2 -30
83 88 -30
54 54 -30
36 1 -30
21 17 -30
11 48 -30
74 36 -30
82 52 -30
91 30 -30
41 83 -30
42 20 -30
15 66 -30
34 16 -30
83 42 -30
62 75 -30
59 69 -30
29 41 -30
56 34 -30
94 43 -30
34 14 -30
59 96 -30
13 84 -30
32 94 -30
88 22 -30
76 80 -30
4 69 -30
99 18 -30
35 32 -30
85 69 -30
25 99 -30
96 83 -30
67 24 -30
23 74 -30
57 16 -30
16 91 -30
82 26 -30
86 94 -30
9 69 -30
40 96 -30
90 15 -30
75 46 -30
35 73 -30
15 69 -30
56 100 -30
38 81 -30
98 85 -30
63 16 -30
8 38 -30
89 16 -30
53 4 -30
6 34 -30
29 44 -30
80 89 -30
12 71 -30
85 54 -30
37 11 -30
51 71 -30
36 65 -30
40 43 -30
16 29 -30
23 65 -30
13 38 -30
32 72 -30
27 20 -30
87 79 -30
75 45 -30
65 55 -30
40 96 -30
44 3 -30
66 80 -30
56 2 -30
42 6 -30
72 77 -30
23 63 -30
20 90 -30
43 94 -30
55 7 -30
83 86 -30
78 9 -30
58 17 -30
40 84 -30
61 56 -30
39 52 -30
51 34 -30
54 68 -30
65 10 -30
21 6 -30
67 44 -30
35 41 -30
59 54 -30
31 1 -30
99 37 -30
8 34 -30
22 37 -30
42 31 -30
53 33 -30
15 65 -30
88 5 -30
16 90 -30
38 70 -30
9 2 -30
31 29 -30
59 49 -30
73 93 -30
90 83 -30
98 20 -30
83 97 -30
56 90 -30
30 29 -30
27 23 -30
12 31 -30
56 26 -30
96 95 -30
82 63 -30
37 71 -30
84 45 -30
72 14 -30
26 82 -30
15 50 -30
75 4 -30
32 72 -30
75 14 -30
68 82 -30
56 49 -30
10 34 -30
24 73 -30
64 31 -30
98 11 -30
77 31 -30
26 13 -30
1 9 -30
58 24 -30
75 83 -30
6 89 -30
84 80 -30
44 15 -30
51 18 -30
28 71 -30
51 83 -30
71 60 -30
16 94 -30
85 32 -30
76 82 -30
42 53 -30
65 67 -30
65 65 -30
28 74 -30
89 2 -30
8 94 -30
42 91 -30
25 85 -30
5 27 -30
54 85 -30
49 4 -30
67 20 -30
15 35 -30
65 99 -30
18 93 -30
33 59 -30
45 49 -30
78 61 -30
13 57 -30
35 53 -30
10 94 -30
98 51 -30
85 22 -30
87 41 -30
1 92 -30
25 49 -30
47 44 -30
20 13 -30
30 37 -30
64 47 -30
29 96 -30
57 73 -30
44 86 -30
85 8 -30
42 19 -30
61 51 -30
65 10 -30
53 49 -30
32 91 -30
41 84 -30
82 66 -30
32 28 -30
61 52 -30
93 90 -30
88 56 -30
36 16 -30
3 92 -30
40 98 -30
78 24 -30
5 71 -30
95 17 -30
