# .PCD v0.7 - Point Cloud Data file format
VERSION 0.7
FIELDS x y z
SIZE 4 4 4
TYPE F F F
COUNT 1 1 1
WIDTH 187
HEIGHT 1
VIEWPOINT 0 0 0 1 0 0 0
POINTS 187
DATA ascii
-1.5260757 1.9962298 -0.72056007
-1.7125961 1.9921439 -0.68760753
-1.3517379 1.9957968 -0.69123608
-1.113295 1.9938055 -0.71276075
-1.0327075 1.9809291 -0.6972757
-1.8240452 2.0025866 -0.70898801
-1.4413713 2.0019464 -0.70740128
-1.2773978 2.0077679 -0.68240464
-0.99584228 2.051739 -0.71184772
-1.6183261 1.9955457 -0.67247456
-1.5273212 1.9978589 -0.65821248
-1.1911582 1.9964577 -0.6666674
-1.1164569 1.9994682 -0.65670329
-1.0405533 1.9959792 -0.64548373
-1.4441056 2.0057442 -0.64689022
-1.003474 2.0674624 -0.65901661
-1.8174589 1.9953555 -0.63970023
-1.7176588 1.998033 -0.62449819
-1.1883837 1.9918075 -0.60706908
-1.6274586 2.0068069 -0.61239046
-1.3576005 2.0044527 -0.6336472
-1.2730466 2.0009291 -0.62072861
-1.1183189 2.0028031 -0.60039151
-1.0016042 2.0636103 -0.60038245
-1.0409858 1.9968086 -0.58939624
-1.826144 2.0048907 -0.57644635
-1.7240186 2.0054309 -0.56214482
-1.5294878 2.0006931 -0.59688461
-1.4430115 2.0042248 -0.58534247
-1.362465 2.0116351 -0.57585025
-1.2758273 2.0052996 -0.56332362
-1.5225266 1.9915873 -0.53286994
-1.4354143 1.9936727 -0.52219111
-1.6255397 2.0044408 -0.54856491
-1.1981913 2.0082457 -0.55426341
-1.1195509 2.0050094 -0.54427874
-1.0440776 2.0027394 -0.5353083
-1.0020033 2.0644326 -0.54388821
-1.8072537 1.9841515 -0.50550479
-1.7163373 1.9964957 -0.49589667
-1.2722607 1.9996938 -0.50379539
-1.6249036 2.0036564 -0.48589262
-1.35928 2.0069325 -0.51523465
-1.1970677 2.0063624 -0.49661604
-1.1177454 2.0017757 -0.48734033
-1.0468491 2.0080557 -0.48135698
-0.99764782 2.0554588 -0.48565707
-1.816754 1.9945816 -0.44341224
-1.4399654 1.9999937 -0.46418008
-1.5381353 2.0120049 -0.47701624
-1.3552524 2.0009859 -0.45519617
-1.2747754 2.0036464 -0.44729498
-1.197022 2.0062857 -0.44003418
-1.7160463 1.9961573 -0.43263629
-1.4341617 1.9919329 -0.40340191
-1.1167293 1.999956 -0.43143922
-1.6240469 2.0026002 -0.42375681
-1.5301834 2.0016029 -0.41408309
-1.0446836 2.0039015 -0.42564762
-1.0077853 2.0763452 -0.43471313
-1.7144399 1.9942887 -0.36959526
-1.348779 1.9914281 -0.395298
-1.1915044 1.9970379 -0.38219526
-1.0361636 1.9875587 -0.36838263
-1.8232561 2.0017202 -0.38051295
-1.6251441 2.003953 -0.36259362
-1.2776037 2.0080917 -0.39116672
-1.119485 2.0048914 -0.37739438
-1.0007936 2.0619402 -0.37669045
-1.4368283 1.9956366 -0.34558502
-1.3468205 1.9885364 -0.33752325
-1.1882764 1.9916277 -0.32592475
-1.5300533 2.0014327 -0.35404685
-1.2748451 2.0037558 -0.33375925
-1.1186062 2.0033176 -0.32245162
-0.99563831 2.0513189 -0.32044384
-1.8176296 1.995543 -0.31547067
-1.6194648 1.9969498 -0.30049112
-1.4353898 1.9936386 -0.28711227
-1.7270501 2.0089571 -0.30962849
-1.5337986 2.0063319 -0.29515788
-1.3552895 2.0010407 -0.28246063
-1.0427178 2.0001309 -0.31699166
-1.7132342 1.9928862 -0.24530521
-1.2679937 1.992987 -0.27607358
-1.1920202 1.9979025 -0.27190384
-1.0415325 1.9978572 -0.2633211
-1.8247727 2.0033853 -0.25293937
-1.6227279 2.0009735 -0.24046944
-1.1195519 2.0050111 -0.26838818
-1.0032351 2.0669703 -0.26852509
-1.3544377 1.999783 -0.22544415
-1.1891052 1.9930167 -0.21662374
-1.1153264 1.9974437 -0.21353802
-1.0405025 1.9958818 -0.21009229
-1.5314466 2.0032551 -0.23536503
-1.441609 2.0022767 -0.23029445
-1.2753857 2.0046055 -0.2217703
-1.000051 2.0604103 -0.21377572
-1.620834 1.9986383 -0.17989501
-1.519287 1.9873495 -0.17488247
-1.269601 1.9955133 -0.16534667
-1.1899281 1.994396 -0.16235769
-1.8298762 2.0089881 -0.18997468
-1.7195938 2.000284 -0.18440907
-1.4414431 2.0020463 -0.17246455
-1.3610687 2.0095735 -0.16967832
-1.0030321 2.0665522 -0.16058961
-1.7141678 1.9939723 -0.1224157
-1.1152072 1.9972303 -0.15991721
-1.8233216 2.001792 -0.12605633
-1.0442648 2.0030982 -0.15792246
-1.527323 1.9978614 -0.11707515
-1.4348122 1.9928364 -0.11432067
-1.3545834 1.9999981 -0.11245516
-1.1862293 1.9881967 -0.10778248
-1.6235343 2.0019681 -0.11999673
-1.273535 2.0016966 -0.11045018
-1.1177311 2.0017502 -0.10673437
-1.0428821 2.0004461 -0.10502577
-0.99870163 2.0576301 -0.10647942
-1.816281 1.9940624 -0.062712282
-1.6166406 1.9934673 -0.059674609
-1.3534138 1.9982713 -0.05611416
-1.1814492 1.9801849 -0.053612094
-1.1144428 1.9958612 -0.053148735
-1.728675 2.0108473 -0.061654575
-1.5328434 2.0050824 -0.058681309
-1.4415468 2.0021901 -0.057362307
-1.2751187 2.0041859 -0.05522991
-1.0428528 2.0003896 -0.052450765
-0.99753737 2.0552313 -0.05311624
-1.8188742 1.9969095 7.7112098e-05
-1.5213234 1.9900134 7.1511167e-05
-1.3486167 1.9911885 6.8656344e-05
-1.1076797 1.9837493 6.4863387e-05
-1.0405575 1.9959869 6.4260661e-05
-1.721548 2.002557 7.5391326e-05
-1.6256682 2.0045993 7.3681476e-05
-1.4422314 2.0031412 7.0466565e-05
-1.2762125 2.0059049 6.7872992e-05
-1.1961317 2.0047936 6.664644e-05
-1.0026366 2.0657372 6.5552907e-05
-1.8215652 1.9998637 0.063049272
-1.6185619 1.9958364 0.059892327
-1.4380072 1.9972742 0.057362061
-1.3535196 1.9984274 0.056256425
-1.1875534 1.9904159 0.0540215
-1.0415159 1.9978255 0.05251224
-1.7271179 2.0090361 0.06175039
-1.5327246 2.0049272 0.058820933
-1.2749248 2.0038812 0.055357195
-1.1181378 2.0024786 0.053455975
-0.99980885 2.0599113 0.053367995
-1.5233066 1.9926075 0.11691079
-1.4399025 1.9999065 0.11486726
-1.3534369 1.9983054 0.11249808
-1.1877512 1.9907475 0.10805341
-1.1134462 1.9940766 0.10645589
-1.2768909 2.0069714 0.11087734
-1.0444399 2.0034342 0.10531193
-1.0046746 2.0699363 0.1072479
-1.1088059 1.9857662 0.15912977
-1.0414684 1.9977343 0.15762883
-1.8261424 2.004889 0.12640652
-1.7243909 2.0058641 0.12329713
-1.6244984 2.0031567 0.12021556
-1.5183109 1.9860727 0.17491356
-1.4396654 1.9995772 0.17239323
-1.2693857 1.995175 0.16545431
-1.1926217 1.9989108 0.16285878
-1.8232378 2.0017002 0.18944085
-1.7195827 2.0002711 0.18455923
-1.6224604 2.0006437 0.18022332
-1.3566809 2.0030949 0.1692701
-0.99955398 2.0593863 0.16016409
-1.1907704 1.9958078 0.21706095
-1.110779 1.9892999 0.21279863
-1.0413829 1.9975703 0.21039976
-1.533549 2.0060053 0.23583359
-1.4455677 2.0077751 0.23106934
-1.3562174 2.0024107 0.22587967
-1.2726022 2.0002306 0.22142284
-0.9971593 2.0544524 0.2132891
-1.8250753 2.0037174 0.25313741
-1.7226619 2.0038528 0.24680729
-1.6272864 2.0065947 0.24129376
