# .PCD v0.7 - Point Cloud Data file format
VERSION 0.7
FIELDS x y z
SIZE 4 4 4
TYPE F F F
COUNT 1 1 1
WIDTH 419
HEIGHT 1
VIEWPOINT 0 0 0 1 0 0 0
POINTS 419
DATA ascii
-1.9264413 0.45009878 -0.72011304
-0.87445647 -1.94154 -0.7194311
-0.81503808 -1.9577485 -0.71647501
-1.0290713 -1.8429689 -0.71315789
-1.0446303 -1.7508675 -0.68883532
-1.214916 -1.4981039 -0.70209259
-1.2552433 -1.4601372 -0.70089322
-1.3082637 -1.4363192 -0.70719123
-1.3387369 -1.3876355 -0.70184839
-1.3696727 -1.3405182 -0.69761097
-1.4318862 -1.3231512 -0.70966566
-1.4690422 -1.2813469 -0.70956367
-1.5181934 -1.2493751 -0.71569133
-1.8021897 -0.95603681 -0.68925816
-1.8154727 -0.89732164 -0.6842078
-1.854674 -0.85139501 -0.68948954
-1.8830818 -0.79985732 -0.69123232
-1.9155977 -0.74955755 -0.69498575
-1.9571807 -0.70178062 -0.70247626
-2.0065179 -0.65514624 -0.71314257
-2.0312836 -0.5993225 -0.71553713
-2.0844262 -0.42434621 -0.71868902
-2.0210774 -0.35139543 -0.6930846
-2.0054491 -0.28968003 -0.68459249
-1.9451773 0.055828243 -0.70833921
-1.92677 0.11068592 -0.70250368
-1.9343001 0.16690458 -0.70670456
-1.919229 0.22123039 -0.70322841
-1.9221987 0.27765483 -0.70694506
-1.9258595 0.33484033 -0.71153265
-1.9231939 0.39152262 -0.71440494
-0.92146432 -1.8984977 -0.65868086
-0.96863842 -1.8580326 -0.65401679
-1.011009 -1.8106211 -0.64727461
-1.0692174 -1.6805576 -0.67296869
-1.0992106 -1.6229486 -0.66225898
-1.1361736 -1.578052 -0.65697324
-1.165198 -1.5241725 -0.6481967
-1.1944339 -1.4728476 -0.64068323
-1.2357892 -1.4375076 -0.6404739
-1.2784573 -1.4035953 -0.64144719
-1.3186512 -1.366816 -0.64166909
-1.467159 -1.2073771 -0.64196146
-1.501888 -1.165334 -0.64225972
-1.5475135 -1.1311371 -0.64762241
-1.5871304 -1.0916477 -0.65082324
-1.6601412 -1.0730417 -0.66785961
-1.6920483 -1.0260735 -0.66857427
-1.734009 -0.98462069 -0.67371166
-1.9559106 -0.22545868 -0.66519916
-1.9159507 -0.16532126 -0.64972782
-1.9023602 -0.10928367 -0.64379048
-1.8880947 0.21764152 -0.6421352
-1.8953328 0.27377415 -0.64700252
-1.8892331 0.32847226 -0.64787149
-1.9225223 0.39138591 -0.66286618
-1.915789 0.44760993 -0.66469997
-1.9310638 0.5100165 -0.67480016
-1.919322 0.56628871 -0.67609769
-1.8853699 0.61559033 -0.67008501
-1.8582011 0.66628981 -0.66695029
-1.0411654 -1.8646283 -0.61241663
-1.0773025 -1.8056282 -0.60294467
-1.0360774 -1.7365323 -0.63115829
-1.0684296 -1.6793194 -0.6212523
-1.1127058 -1.6428738 -0.61932784
-1.1409351 -1.5846652 -0.6094768
-1.1730217 -1.5344067 -0.60284609
-1.3469069 -1.3182372 -0.63674748
-1.3780639 -1.2734162 -0.63393945
-1.41347 -1.232875 -0.63368994
-1.586519 -1.0912273 -0.6010201
-1.6399347 -1.0599811 -0.60948074
-1.6890359 -1.0242467 -0.6165511
-1.7515377 -0.99457389 -0.62868845
-1.7825872 -0.94563788 -0.6298331
-1.8314506 -0.9052189 -0.63765651
-1.834235 -0.84201241 -0.62995332
-1.871702 -0.79502362 -0.63472384
-1.8866887 -0.73824573 -0.63236111
-1.9066181 -0.68365055 -0.63220471
-1.9183205 -0.62634903 -0.62986547
-1.9399694 -0.5723806 -0.63132036
-1.9291893 -0.50952148 -0.62279731
-1.917524 -0.4480153 -0.61462766
-1.9070315 -0.38823232 -0.60744315
-1.8978341 -0.32996768 -0.60124964
-1.8750925 -0.053816747 -0.63377905
-1.874819 -4.9750006e-06 -0.63342583
-1.8690356 4.9596538e-06 -0.63147181
-1.8841282 0.054076079 -0.63683313
-1.8800195 0.10800029 -0.63623005
-1.875823 0.16185878 -0.63611996
-1.9195157 0.22126344 -0.60309768
-1.9135309 0.2764028 -0.60346115
-1.9240315 0.33452252 -0.60954922
-1.9655945 0.4001545 -0.62609708
-1.1135796 -1.7502846 -0.59489059
-1.1417228 -1.6857164 -0.58384103
-1.1764641 -1.6340121 -0.57738918
-1.2071401 -1.5790362 -0.56996971
-1.2320586 -1.5192423 -0.56091827
-1.2030287 -1.4834456 -0.59614307
-1.2362734 -1.4380709 -0.59192252
-1.2755868 -1.4004439 -0.5912593
-1.320775 -1.3690175 -0.59374958
-1.3642625 -1.3352232 -0.59582788
-1.3973577 -1.2912449 -0.59385341
-1.4291735 -1.2465721 -0.59192741
-1.4726377 -1.2118856 -0.59527951
-1.5120118 -1.173189 -0.59733999
-1.5511211 -1.133774 -0.59968948
-1.6521508 -1.0678771 -0.56412691
-1.6845856 -1.0215479 -0.56495905
-1.7522497 -0.99497825 -0.57783747
-1.8056092 -0.95785081 -0.58612758
-1.8282238 -0.90362406 -0.58480984
-1.8380942 -0.84378403 -0.57998252
-1.8789058 -0.79808354 -0.58539206
-1.8774427 -0.7346279 -0.57812977
-1.9124998 -0.68575948 -0.58262497
-1.9359061 -0.63209081 -0.5839889
-1.9534926 -0.5763706 -0.58406395
-1.9450336 -0.51370609 -0.57688951
-1.9474429 -0.45500562 -0.57349509
-1.9361043 -0.39415091 -0.56659174
-1.927707 -0.33516154 -0.56108844
-1.8789389 -0.27140611 -0.59255201
-1.8919638 -0.21808751 -0.59444112
-1.886245 -0.16275805 -0.59093338
-1.8709549 -0.10747955 -0.58493608
-1.8866221 -0.054147657 -0.58910596
-1.8932997 -5.0240405e-06 -0.59094769
-1.8772223 4.981378e-06 -0.58592951
-1.8853762 0.054111902 -0.58871692
-1.8931316 0.10875352 -0.59186941
-1.8921334 0.16326615 -0.59277815
-1.9592611 0.2258449 -0.56556433
-1.9908527 0.28757167 -0.57682842
-1.2700233 -1.4773299 -0.55867052
-1.3944837 -1.4454184 -0.52568209
-1.2919101 -1.4183649 -0.55016625
-1.3171636 -1.3652741 -0.54401124
-1.3612053 -1.3322313 -0.54618567
-1.4057682 -1.2990166 -0.54888213
-1.435106 -1.2517467 -0.54608619
-1.4780029 -1.216301 -0.54890102
-1.5120898 -1.1732497 -0.54882985
-1.5646111 -1.1436343 -0.55575174
-1.6037891 -1.1031058 -0.55819333
-1.7009819 -1.0314908 -0.52067316
-1.7522097 -0.99495554 -0.52739668
-1.8097509 -0.9600479 -0.53620249
-1.8197943 -0.89945763 -0.53131151
-1.8569702 -0.85244912 -0.53480279
-1.8804704 -0.79874814 -0.53474897
-1.8820624 -0.73643553 -0.52897394
-1.9260328 -0.69061196 -0.53554136
-1.950666 -0.63691008 -0.53708726
-1.9557033 -0.57702279 -0.53369504
-1.9539911 -0.51607192 -0.52896845
-1.9459817 -0.45466423 -0.52305257
-1.9139971 -0.27647012 -0.5545603
-1.9001735 -0.21903385 -0.54850799
-1.9033608 -0.16423494 -0.54784197
-1.890574 -0.1086066 -0.54304087
-1.8968607 -0.054441515 -0.54417384
-1.9136678 -5.0780895e-06 -0.54876947
-1.9011207 5.0447943e-06 -0.54517144
-1.9087747 0.05478346 -0.54759175
-1.9207617 0.11034077 -0.55171186
-1.9197983 0.16565326 -0.55257308
-1.4084913 -1.3785107 -0.51583689
-1.4488553 -1.3388318 -0.51633555
-1.5654795 -1.2882886 -0.48052546
-1.4758229 -1.2872614 -0.5125699
-1.4869128 -1.2236332 -0.50401783
-1.528326 -1.1858475 -0.50631148
-1.5664403 -1.1449715 -0.50784349
-1.6032515 -1.102736 -0.50930822
-1.654068 -1.0691162 -0.51549226
-1.7949368 -0.95218921 -0.48157927
-1.8538861 -0.91630793 -0.49013823
-1.8573803 -0.85263729 -0.48439336
-1.8840317 -0.80026078 -0.48515472
-1.9174438 -0.75027996 -0.48801315
-1.9158942 -0.68697661 -0.48240241
-1.9604728 -0.6401121 -0.48880026
-1.9764972 -0.58315796 -0.4884218
-1.9620651 -0.51820433 -0.48098242
-1.9417223 -0.39529464 -0.51864499
-1.9321924 -0.33594143 -0.51331306
-1.9273523 -0.27839923 -0.50969481
-1.9135395 -0.22057456 -0.5041604
-1.9078419 -0.16462159 -0.50120819
-1.9264041 -0.1106649 -0.50504237
-1.9169476 -0.055018023 -0.50194257
-1.9189301 -5.092053e-06 -0.50225484
-1.9095398 5.0671356e-06 -0.49979711
-1.9307278 0.055413533 -0.50555092
-1.9810002 0.11380125 -0.51935577
-1.5823815 -1.2277899 -0.47470257
-1.5769011 -1.1526176 -0.46294472
-1.6075162 -1.1056694 -0.46242681
-1.6586865 -1.0721015 -0.46810332
-1.7020305 -1.0321268 -0.47178215
-1.7508304 -0.99417233 -0.47720397
-1.8586272 -0.91865134 -0.44069672
-1.9774846 -0.6456666 -0.44217652
-1.9627644 -0.45858535 -0.47773096
-1.9392542 -0.39479217 -0.46905792
-1.9438974 -0.33797652 -0.46764243
-1.9281546 -0.27851513 -0.46174225
-1.9254915 -0.22195226 -0.45939001
-1.9225587 -0.16589144 -0.45736611
-2.0775609 -0.11934832 -0.44233859
-1.9450758 -0.11173752 -0.46176985
-1.9685328 -0.056498565 -0.46676156
-2.0134745 -5.3429353e-06 -0.47722125
-2.0164118 5.3507297e-06 -0.4779174
-1.6629167 -1.2154897 -0.43783164
-1.6637529 -1.1443497 -0.42922843
-1.6810036 -1.0865262 -0.4254593
-1.7084231 -1.0360034 -0.42469934
-1.7495707 -0.99345708 -0.42766473
-1.8116382 -0.96104908 -0.43591529
-1.8693808 -0.85814625 -0.43722716
-1.8943802 -0.80465645 -0.43749312
-1.9108973 -0.74771839 -0.43617243
-1.9478507 -0.69843513 -0.43985102
-1.9822065 -0.5848425 -0.43929851
-1.9835684 -0.52388358 -0.43608883
-1.9691801 -0.46008438 -0.42984578
-1.9624661 -0.39951763 -0.42570218
-1.9541899 -0.33976603 -0.42161816
-2.1143367 -0.30540848 -0.40237051
-1.9796587 -0.28595471 -0.4251675
-2.1355121 -0.24616145 -0.40488926
-2.0109167 -0.23179927 -0.4302749
-2.0351315 -0.17560498 -0.43419901
-1.7261479 -1.1872658 -0.39460257
-1.7466863 -1.1289806 -0.39172974
-1.7585096 -1.0663762 -0.38735855
-1.7705574 -1.005374 -0.383499
-1.8105421 -0.96046764 -0.38603041
-1.8620453 -0.92034072 -0.39121908
-1.8818159 -0.86385459 -0.39000371
-1.9160054 -0.81384194 -0.39208755
-1.9415743 -0.75972205 -0.39269659
-1.9575858 -0.70192581 -0.39169949
-1.9783287 -0.64594221 -0.39197943
-1.9947528 -0.58854419 -0.39172578
-1.9899156 -0.52556002 -0.38765439
-2.1413913 -0.50032026 -0.36141893
-1.994904 -0.46609455 -0.38586155
-2.1770012 -0.44319254 -0.36513209
-2.039161 -0.41513112 -0.39195612
-2.204159 -0.38322699 -0.3676911
-2.0605154 -0.35825235 -0.39392239
-1.785315 -1.2279617 -0.35612476
-1.8166932 -1.17423 -0.35551557
-1.8201174 -1.1037357 -0.349843
-1.8369367 -1.043066 -0.34717929
-1.8407096 -0.97647107 -0.34245503
-1.8686233 -0.92359197 -0.342576
-1.8808231 -0.86339885 -0.34013
-1.9140978 -0.81303167 -0.34178722
-1.9375523 -0.75814825 -0.34194949
-1.9680095 -0.70566344 -0.34360918
-1.9913507 -0.65019399 -0.34428489
-2.0547674 -0.6062513 -0.35209605
-2.0903366 -0.5520823 -0.35532981
-1.8643194 -1.2050135 -0.31196621
-1.8806384 -1.1404362 -0.30909306
-1.8989851 -1.0782989 -0.30689609
-1.9306781 -1.0241982 -0.30714139
-1.8752133 -0.92684919 -0.29396528
-1.9107085 -0.87711787 -0.29546198
-1.9280052 -0.81893897 -0.2943812
-1.9454865 -0.76125288 -0.29359382
-1.9802972 -0.71006942 -0.29565018
-1.997286 -0.65213192 -0.29527089
-2.0523541 -0.60553926 -0.30071905
-2.1644459 -0.57165545 -0.31460989
-1.9605477 -1.1888938 -0.26797435
-1.9469935 -1.1055595 -0.26167735
-1.9366723 -1.027378 -0.25622204
-1.9048747 -0.94150972 -0.24833825
-1.9203111 -0.88152593 -0.24695091
-1.9361062 -0.82237995 -0.24584587
-1.9800777 -0.77478814 -0.24850366
-1.9768977 -0.70885044 -0.24545045
-2.0148163 -0.65785575 -0.24771239
-2.067605 -0.610039 -0.25194636
-2.1888056 -0.57808918 -0.26458466
-1.9986361 -1.2119911 -0.21817432
-1.9800574 -1.1243341 -0.21253648
-1.9354041 -1.0267051 -0.20449658
-2.0893221 -0.61644655 -0.20332931
-2.191293 -0.57874608 -0.21154949
-1.9963081 -1.1335617 -0.16049062
-1.9192679 -0.94862378 -0.19983286
-1.9053814 -0.87467247 -0.19569288
-1.9512199 -0.82879966 -0.19787642
-1.9747682 -0.7727105 -0.19793415
-1.9970825 -0.71608806 -0.19802941
-2.0221479 -0.66024959 -0.19855428
-1.9487104 -1.033764 -0.15421551
-1.9238794 -0.95090306 -0.15002909
-1.9209707 -0.88182878 -0.14776793
-1.9560437 -0.83084863 -0.14857055
-1.973166 -0.77208358 -0.14812712
-2.0023108 -0.71796274 -0.14870705
-2.0389795 -0.6657452 -0.14994967
-2.0854628 -0.61530787 -0.15200692
-2.206233 -0.58269197 -0.1595252
-1.9899712 -1.1299634 -0.10653596
-1.9727148 -1.0464981 -0.10396148
-1.9326321 -0.95522922 -0.10036313
-1.9309351 -0.88640296 -0.09891326
-1.9644617 -0.8344242 -0.099363089
-1.9920549 -0.77947468 -0.099586308
-2.0009422 -0.71747202 -0.098960519
-2.0523713 -0.67011774 -0.10051154
-2.1257837 -0.62720436 -0.10318282
-2.2273331 -0.5882647 -0.1072483
-2.0041745 -1.1380284 -0.053586222
-1.9708918 -1.0455309 -0.05187273
-1.9496053 -0.96361852 -0.050563823
-1.9553674 -0.89761871 -0.050024573
-1.9612244 -0.83304918 -0.049542397
-1.9952062 -0.78070778 -0.049814332
-2.0283217 -0.72728944 -0.050099391
-2.0718203 -0.67646807 -0.050673433
-2.1327999 -0.62927449 -0.051701915
-2.2475328 -0.59359968 -0.054047983
-2.0106084 -1.1416819 6.6007822e-05
-2.0026982 -1.0624038 6.4720538e-05
-1.9599983 -0.9687553 6.2416468e-05
-1.9440849 -0.89243937 6.1068953e-05
-1.9713857 -0.83736533 6.11465e-05
-1.9969686 -0.7813974 6.121926e-05
-2.0277622 -0.72708875 6.1498271e-05
-2.0850313 -0.68078154 6.2616826e-05
-2.1316485 -0.62893486 6.3448657e-05
-2.2633407 -0.59777474 6.683034e-05
-2.0246603 -1.1496608 0.054266967
-2.0024765 -1.0622861 0.052833516
-1.9800907 -0.97868627 0.051480655
-1.9606272 -0.90003324 0.050282378
-1.9663025 -0.83520615 0.049792718
-2.017715 -0.78951526 0.050500084
-2.0320344 -0.72862071 0.050314419
-2.0715065 -0.67636561 0.050790247
-2.1592839 -0.63708848 0.052472532
-2.2874067 -0.60413086 0.055142015
-1.9994688 -1.0606906 0.10550091
-1.9912409 -0.98419738 0.10353383
-1.9656734 -0.90234971 0.10081651
-1.9954834 -0.847601 0.10105624
-2.011569 -0.78711045 0.10068546
-2.0579507 -0.73791343 0.10190509
-2.0792272 -0.67888647 0.10195193
-2.1748483 -0.64168072 0.10569411
-2.3233621 -0.61362708 0.1120097
-1.9918888 -0.98451763 0.15546013
-1.9802961 -0.90906233 0.15245648
-2.0022483 -0.85047442 0.15220481
-2.0297112 -0.7942093 0.15249707
-2.068716 -0.74177349 0.1537649
-2.0905049 -0.68256879 0.15386511
-2.0201907 -1.0716833 0.16000348
-2.197098 -0.64824545 0.16027534
-2.330478 -0.61550653 0.16864723
-2.0235009 -1.0734392 0.2139369
-1.9971292 -0.98710775 0.20806803
-1.9857873 -0.91158301 0.20407683
-1.994807 -0.8473137 0.20242149
-2.0368543 -0.79700434 0.20428312
-2.0665936 -0.74101245 0.20504855
-2.1070418 -0.68796819 0.20701765
-2.2021227 -0.64972794 0.21443912
-2.3302865 -0.61545593 0.22510688
-2.0221791 -1.0727382 0.26766708
-2.0032964 -0.99015594 0.26129881
-1.9834497 -0.91051 0.25519681
-1.9986035 -0.84892631 0.25390741
-2.0422211 -0.79910427 0.2564297
-2.0680888 -0.74154854 0.25689983
-2.1103714 -0.68905532 0.25958893
-2.1963298 -0.64801878 0.26776457
-2.0192664 -0.99804938 0.31667873
-2.0094566 -0.92244858 0.31086063
-1.9939042 -0.84693027 0.30456927
-2.0433135 -0.79953176 0.30848467
-2.0665133 -0.74098361 0.30864969
-2.1030035 -0.68664962 0.31102857
-2.3250008 -0.61405993 0.28118724
-2.0214317 -1.0723417 0.32171214
-1.9815726 -0.84169227 0.353962
-2.0384614 -0.79763311 0.3598868
-2.1956697 -0.64782399 0.32185152
-2.3433449 -0.61890477 0.3407546
-1.9930103 -1.0572644 0.37092215
-2.0227003 -0.99974668 0.37095538
-2.0068038 -0.92123067 0.36304194
-2.0622129 -0.73944169 0.36018535
-2.1047282 -0.68721277 0.36401659
-2.1832061 -0.64414662 0.37423822
-2.3502901 -0.6207391 0.39966103
-1.9752861 -1.0478621 0.42128813
-2.0385015 -1.0075567 0.42842731
-2.0132697 -0.92419893 0.41737828
-1.9914838 -0.84590214 0.40766123
-2.0376258 -0.79730618 0.41225302
-2.0649419 -0.74042016 0.41331038
-2.1035597 -0.68683124 0.41692311
-2.1404896 -0.63154328 0.42047724
-2.3609595 -0.62355703 0.46008164
