# .PCD v0.7 - Point Cloud Data file format
VERSION 0.7
FIELDS x y z
SIZE 4 4 4
TYPE F F F
COUNT 1 1 1
WIDTH 155
HEIGHT 1
VIEWPOINT 0 0 0 1 0 0 0
POINTS 155
DATA ascii
1.3566704 -2.3498173 -0.7101804
1.4092263 -2.2867382 -0.70304948
1.4555731 -2.2169337 -0.69414532
1.5217863 -2.1788714 -0.69561553
1.5956209 -2.1504347 -0.70086753
1.6671382 -2.1170928 -0.70530367
1.7619816 -2.1100698 -0.71951354
1.2761691 -2.5360143 -0.67288446
1.3161473 -2.4386158 -0.656793
1.3598665 -2.3553531 -0.64461333
1.6746733 -2.1266618 -0.6415689
1.770624 -2.1204195 -0.65474558
1.8724738 -2.1159339 -0.66967762
1.2688608 -2.5214913 -0.60000968
1.4009079 -2.2732401 -0.63288295
1.4641056 -2.2299292 -0.63226247
1.5264637 -2.1855686 -0.63184524
1.5950743 -2.149698 -0.63444763
1.3096019 -2.4264882 -0.58610487
1.3558311 -2.3483636 -0.57639551
1.4116086 -2.2906039 -0.5719263
1.4643631 -2.2303214 -0.56713408
1.5166613 -2.1715333 -0.5630213
1.591501 -2.1448822 -0.5677194
1.6665412 -2.1163349 -0.57258666
1.7671391 -2.116246 -0.58604223
1.8647242 -2.1071765 -0.59810388
1.2775477 -2.538754 -0.53530794
1.8771396 -2.1212063 -0.53350794
1.3091271 -2.4256084 -0.5191586
1.3562465 -2.3490829 -0.5108999
1.4004874 -2.2725577 -0.50279075
1.4626935 -2.2277784 -0.50196397
1.5220902 -2.1793065 -0.50067842
1.5781814 -2.1269312 -0.49884546
1.6696259 -2.1202521 -0.50830758
1.7626166 -2.1108301 -0.51796252
1.2791778 -2.5419931 -0.46769515
1.3128722 -2.4325476 -0.45430356
1.3512206 -2.340378 -0.4441492
1.7703098 -2.1200433 -0.45393655
1.6622014 -2.1108236 -0.44156685
1.8739313 -2.1175809 -0.46473283
1.3985331 -2.2693865 -0.43811306
1.4531009 -2.2131684 -0.43513137
1.5294825 -2.1898906 -0.43900388
1.5865569 -2.1382189 -0.43759277
1.2787918 -2.5412261 -0.39979923
1.3173528 -2.4408493 -0.38979471
1.350902 -2.3398259 -0.37969652
1.4000356 -2.2718246 -0.37502715
1.4547081 -2.2156162 -0.37248662
1.5229764 -2.1805754 -0.37378961
1.5873712 -2.1393166 -0.37437186
1.6705365 -2.1214085 -0.37947133
1.7602634 -2.1080122 -0.38595235
1.8732677 -2.1168308 -0.39724615
1.273855 -2.5314157 -0.33120278
1.3115139 -2.4300308 -0.32272947
1.8820957 -2.1268067 -0.33192
1.7559718 -2.1028726 -0.32018825
1.3527213 -2.3429773 -0.31619352
1.3981993 -2.2688448 -0.31147599
1.4558963 -2.2174258 -0.31002527
1.5166513 -2.171519 -0.30956483
1.5898409 -2.1426449 -0.31182447
1.6693435 -2.1198933 -0.3153556
1.277541 -2.5387406 -0.26527902
1.3136128 -2.4339197 -0.25815892
1.3499399 -2.3381598 -0.25200734
1.4020747 -2.2751334 -0.24944839
1.4663229 -2.2333062 -0.24937353
1.5343641 -2.1968801 -0.25011998
1.5958312 -2.150718 -0.24997556
1.6687665 -2.1191607 -0.25177029
1.7565703 -2.1035893 -0.25580409
1.8740231 -2.1176846 -0.26394942
1.2688533 -2.5214763 -0.19733576
1.3133126 -2.4333637 -0.19330999
1.3502011 -2.3386123 -0.1887833
1.4012337 -2.2737687 -0.18671812
1.4597564 -2.2233052 -0.18593772
1.5209436 -2.1776648 -0.18569468
1.5904628 -2.1434829 -0.18659522
1.6703247 -2.1211393 -0.18874532
1.7627209 -2.110955 -0.19226129
1.8725072 -2.1159716 -0.19753118
1.2847892 -2.5531442 -0.13306187
1.3074594 -2.4225185 -0.12815681
1.3563262 -2.3492212 -0.1262864
1.4026721 -2.2761028 -0.12446849
1.4644791 -2.2304981 -0.12422175
1.5281004 -2.1879117 -0.12424119
1.599349 -2.1554589 -0.12495326
1.8791186 -2.1234426 -0.132006
1.6683211 -2.1185951 -0.12554005
1.759858 -2.1075265 -0.12782426
1.281963 -2.547528 -0.066307925
1.3086579 -2.4247389 -0.06406308
1.3564587 -2.3494503 -0.063076437
1.3961 -2.2654386 -0.061871123
1.4572864 -2.2195432 -0.061734445
1.518569 -2.1742649 -0.061661828
1.5875536 -2.1395624 -0.061944239
1.6730757 -2.1246328 -0.062876217
1.7572824 -2.1044421 -0.063744895
1.8676614 -2.1104956 -0.065524817
1.2776667 -2.5389903 8.1144259e-05
1.3077583 -2.4230723 7.8606681e-05
1.3466169 -2.3324041 7.6887365e-05
1.4119505 -2.2911587 7.6831835e-05
1.4612726 -2.2256143 7.6008851e-05
1.5211782 -2.1780007 7.5842436e-05
1.5860528 -2.1375396 7.5987198e-05
1.8827801 -2.1275802 8.1106853e-05
1.6653491 -2.114821 7.6846911e-05
1.763454 -2.1118329 7.8544952e-05
1.2762613 -2.5361977 0.066175215
1.306898 -2.4214783 0.064134121
1.3518656 -2.341495 0.063017316
1.3953063 -2.2641504 0.061987881
1.4624386 -2.2273903 0.062104926
1.5148752 -2.1689761 0.061662979
1.590413 -2.1434159 0.062208284
1.6679188 -2.1180842 0.062836431
1.7604083 -2.1081855 0.064015195
1.8693465 -2.1123998 0.065745085
1.2775855 -2.5388288 0.13247843
1.3163421 -2.4389765 0.12918608
1.3549057 -2.3467607 0.1263092
1.4046494 -2.2793114 0.12479715
1.4600741 -2.223789 0.12400033
1.52246 -2.179836 0.12393474
1.5868009 -2.1385479 0.12412528
1.6734893 -2.1251581 0.12608373
1.8862956 -2.1315527 0.13267305
1.7606045 -2.1084204 0.12803566
1.275901 -2.5354815 0.1985947
1.311699 -2.4303739 0.19323093
1.3557004 -2.3481371 0.18970776
1.4035919 -2.2775953 0.18718585
1.4616282 -2.226156 0.18632893
1.5293249 -2.1896651 0.1868712
1.5868603 -2.1386278 0.18632534
1.8795058 -2.1238801 0.19843218
1.6618332 -2.1103561 0.1879399
1.7622902 -2.1104393 0.19237208
1.3120825 -2.4310844 0.2580173
1.3543078 -2.3457251 0.25297871
1.4023659 -2.2756059 0.24965414
1.4521624 -2.2117388 0.24711768
1.5137159 -2.1673162 0.24690633
1.5920486 -2.1456201 0.24953693
1.6661462 -2.115833 0.25153008
1.7592529 -2.106802 0.25635284
