# .PCD v0.7 - Point Cloud Data file format
VERSION 0.7
FIELDS x y z
SIZE 4 4 4
TYPE F F F
COUNT 1 1 1
WIDTH 239
HEIGHT 1
VIEWPOINT 0 0 0 1 0 0 0
POINTS 239
DATA ascii
1.5860265 1.1247339 -0.65691835
1.5143763 1.1405956 -0.64053547
1.4150293 1.3457073 -0.65975583
1.4588618 1.1658496 -0.6309464
1.418171 1.2015879 -0.62800318
1.4048415 1.261279 -0.63786662
1.5774748 1.0519893 -0.59181458
1.5036701 1.0663307 -0.57536948
1.451364 1.0931361 -0.56712532
1.4108615 1.1274902 -0.56371033
1.3811399 1.1702121 -0.56502044
1.346012 1.2084614 -0.56460506
1.3273058 1.2622813 -0.57171828
1.3255538 1.3350939 -0.58722544
1.5874017 0.99402982 -0.53709298
1.5119162 1.0082694 -0.5211283
1.2894189 1.298699 -0.52480173
1.2751462 1.3602353 -0.53466058
1.6268578 0.95488912 -0.49373877
1.4524773 1.0300272 -0.5106194
1.4226124 1.071481 -0.51072013
1.3718842 1.0963415 -0.5035966
1.3356619 1.1316797 -0.50201511
1.3073927 1.1737887 -0.50384343
1.2932661 1.2299092 -0.51179105
1.2558715 1.4191606 -0.49600565
1.7029624 0.93493843 -0.46045327
1.5451243 0.96755564 -0.47716394
1.4344509 1.0172437 -0.46027273
1.5021242 1.0017393 -0.47256809
1.399704 1.0542269 -0.45864239
1.3581531 1.0853683 -0.45504639
1.318684 1.1172945 -0.45237917
1.291997 1.1599661 -0.45445684
1.2756087 1.2131169 -0.46074846
1.250989 1.2599924 -0.46472526
1.241532 1.3243779 -0.47513568
1.2543122 1.5021076 -0.46382254
1.6650349 0.91411602 -0.40375307
1.5882211 0.93221116 -0.43648291
1.5227582 0.95355004 -0.4258374
1.4667057 0.97811937 -0.41784015
1.4090186 0.99920839 -0.40940669
1.3813876 1.0404313 -0.40988514
1.3429348 1.0732065 -0.40744638
1.2992235 1.1008061 -0.40360299
1.2724526 1.1424191 -0.40530449
1.2560687 1.1945342 -0.41083595
1.2380964 1.2470071 -0.41649127
1.2210889 1.3025706 -0.42317075
1.2252129 1.3845158 -0.43818915
1.2154022 1.455511 -0.40306792
1.5551487 0.9127993 -0.38330123
1.7772121 0.91035616 -0.37610021
1.5046163 0.94218957 -0.3773554
1.4462613 0.96448541 -0.36950979
1.3936204 0.9882887 -0.36315718
1.3759893 1.0363654 -0.36616233
1.3132882 1.1127229 -0.36588323
1.2613759 1.1324743 -0.36032656
1.252624 1.1912583 -0.36744115
1.222553 1.2313519 -0.36883417
1.2134403 1.2944118 -0.37713668
1.2165813 1.3747619 -0.39021429
1.6355723 0.89794087 -0.35143462
1.748166 0.89547765 -0.32281402
1.5555335 0.91302514 -0.33972687
1.4924023 0.93454123 -0.33165994
1.456856 0.97155076 -0.32982081
1.3894846 0.98535579 -0.32083827
1.316684 1.0522282 -0.35826889
1.2322074 1.1718419 -0.32028243
1.2192228 1.2279977 -0.32593334
1.2141989 1.295221 -0.33438939
1.1905665 1.3453647 -0.33837476
1.2047293 1.4427295 -0.35402173
1.6208739 0.8898713 -0.30389908
1.555413 0.91295439 -0.29641601
1.4833382 0.92886525 -0.28764224
1.4412187 0.96112257 -0.28470606
1.3900603 0.98576403 -0.28007314
1.3535916 1.019496 -0.31917474
1.3245901 1.0585463 -0.31936792
1.278283 1.0830636 -0.31556711
1.2594428 1.1307387 -0.31879571
1.215333 1.2240798 -0.28349563
1.1970662 1.276945 -0.28766444
1.1819789 1.3356605 -0.29312944
1.1920121 1.4274998 -0.30565146
1.6171228 0.88781184 -0.25925869
1.734987 0.88872689 -0.27395305
1.5529451 0.91150588 -0.25305924
1.4836712 0.92907381 -0.24601428
1.4403208 0.96052378 -0.24329673
1.3402604 1.0094552 -0.27576265
1.3122698 1.0487006 -0.27608216
1.2902929 1.0932393 -0.27794471
1.2625294 1.1335099 -0.27885661
1.2321846 1.1718202 -0.25910246
1.208787 1.2174867 -0.24110769
1.1922499 1.2718072 -0.24498838
1.1958795 1.3513684 -0.25359887
1.1895585 1.4245615 -0.26082057
1.6303422 0.89506948 -0.21737069
1.7274698 0.88487625 -0.22684136
1.5434769 0.90594846 -0.20916937
1.490046 0.93306571 -0.20547274
1.4466318 0.96473247 -0.2032202
1.3922093 0.987288 -0.23985708
1.3454918 1.0133953 -0.23672138
1.3153003 1.0511224 -0.23661937
1.2952718 1.0974578 -0.23858392
1.2574004 1.1289051 -0.2374779
1.214503 1.223244 -0.20146134
1.1960826 1.2758957 -0.20439544
1.1972398 1.3529055 -0.21114112
1.1850889 1.419209 -0.21609206
1.537279 0.90231055 -0.16638137
1.6407624 0.90079021 -0.17471169
1.7576501 0.90033579 -0.18433096
1.4987416 0.93851084 -0.16505753
1.4333798 0.95589489 -0.16081414
1.3843682 0.98172742 -0.19834965
1.3405682 1.0096871 -0.196145
1.3151067 1.0509677 -0.19675158
1.2794183 1.0840255 -0.19598585
1.2514337 1.1235482 -0.19655736
1.2287532 1.1685568 -0.19818071
1.218027 1.2267933 -0.16136307
1.2049745 1.2853811 -0.16445307
1.1909521 1.3458003 -0.16774133
1.1886145 1.4234312 -0.17309439
1.5655898 0.91892767 -0.12691015
1.6396118 0.90015858 -0.13076264
1.7669362 0.90509242 -0.13878836
1.4967707 0.93727666 -0.12346112
1.4489049 0.96624833 -0.12175006
1.3919212 0.98708367 -0.15927535
1.3612528 1.0252662 -0.15906738
1.3179885 1.0532707 -0.15747909
1.2888451 1.0920126 -0.15767649
1.2621984 1.1332128 -0.15832999
1.2392155 1.1785065 -0.1596238
1.2488286 1.1876488 -0.1204814
1.2237166 1.2325238 -0.12142117
1.2138442 1.2948426 -0.12407762
1.1966462 1.3522347 -0.12623446
1.2011006 1.4383839 -0.13100494
1.6534516 0.90775669 -0.087813534
1.5717829 0.92256278 -0.084847361
1.8068913 0.92555898 -0.094513007
1.5122693 0.94698185 -0.083067551
1.4591751 0.97309738 -0.081651479
1.3896089 0.98544395 -0.11909483
1.350711 1.0173264 -0.11821461
1.4177783 1.0054203 -0.080916293
1.3372896 1.0686951 -0.11967491
1.2947586 1.097023 -0.11863733
1.2737713 1.143603 -0.11967222
1.2506179 1.1893504 -0.080346905
1.2307514 1.2396092 -0.081322595
1.2153462 1.2964448 -0.082729019
1.2111744 1.3686519 -0.085083663
1.2132874 1.4529781 -0.088125043
1.5956067 0.93654621 -0.043016966
1.6913499 0.92856312 -0.044861276
1.521078 0.9524979 -0.041727461
1.4653177 0.97719377 -0.040950257
1.4205065 1.0073551 -0.040489189
1.3650591 1.028133 -0.079558678
1.3822876 1.0411092 -0.040234879
1.3311448 1.0637845 -0.079328693
1.349794 1.0786881 -0.040173594
1.3103709 1.1102509 -0.059886001
1.2692717 1.1395633 -0.079411589
1.2867228 1.155231 -0.040205222
1.259814 1.1980959 -0.040422123
1.2475859 1.2565649 -0.041169874
1.2204792 1.3019203 -0.04149124
1.2300179 1.3899455 -0.043153808
1.2284659 1.4711553 -0.044562235
1.633548 0.95881593 5.407495e-05
1.7347139 0.95237023 5.6495817e-05
1.5561843 0.9744814 5.2418163e-05
1.5006032 1.000725 5.1492145e-05
1.439361 1.0207257 5.0375093e-05
1.3938628 1.0498273 4.9816659e-05
1.3626086 1.0889288 4.9796017e-05
1.3333046 1.1296823 4.9889346e-05
1.3007108 1.1677896 4.9903207e-05
1.2718507 1.209543 5.0107083e-05
1.2617906 1.2708719 5.1126572e-05
1.2432969 1.3262606 5.1898063e-05
1.2476541 1.4098747 5.3746746e-05
1.2667063 1.5169505 5.6419613e-05
1.6543227 0.97100979 0.044709515
1.592016 0.99691921 0.0437808
1.5130813 1.0090464 0.042388976
1.8256431 1.0022911 0.048542242
1.4559263 1.0324731 0.041600738
1.4224138 1.0713314 0.041504581
1.3885639 1.109671 0.041429039
1.3429155 1.1378255 0.041024435
1.3101916 1.1763015 0.04103912
1.303237 1.2393917 0.041918129
1.2909834 1.3002747 0.042706653
1.2748454 1.3599143 0.043445952
1.2720522 1.437445 0.044738188
1.3386743 1.6031359 0.048679326
1.6253563 1.0177969 0.089389056
1.5431461 1.0290961 0.086456403
1.7522436 1.0284847 0.094705172
1.4892895 1.0561327 0.085102096
1.4394194 1.0841397 0.08399567
1.4118868 1.1283096 0.084243879
1.386443 1.1747054 0.084702343
1.35716 1.2184701 0.085014649
1.3282888 1.2632161 0.085441813
1.3223195 1.3318363 0.087480403
1.3141699 1.4018629 0.089565925
1.3405873 1.5148911 0.094290532
1.5898157 1.0602193 0.1337003
1.6961148 1.0621058 0.14001884
1.5371896 1.090101 0.13185118
1.4826814 1.1167237 0.1298712
1.4432554 1.1533778 0.12926386
1.402046 1.1879255 0.12857339
1.3798314 1.2388247 0.12974308
1.3695275 1.3024346 0.13223432
1.3576934 1.3674649 0.13482536
1.3696793 1.4610764 0.1401218
1.7091066 1.1397721 0.19186686
1.608852 1.1409206 0.18421201
1.5462916 1.1646334 0.18080135
1.488181 1.18928 0.17792416
1.4484664 1.2272565 0.1773138
1.4285576 1.2825716 0.17930864
1.4242584 1.3544842 0.18357243
1.4430202 1.4534057 0.1912879
